7.908694 -7.530400 -782.837967 0.974522 0.176973 0.137798
7.614102 -6.532051 -782.747492 0.962371 0.256376 0.090078
7.849325 -7.198602 -783.150504 0.945453 0.297062 0.133687
7.594323 -6.478865 -782.785278 0.903917 0.419255 0.084607
7.261696 -11.846895 -781.920844 0.853177 -0.507112 -0.122175
7.807464 -10.659087 -781.631132 0.943092 -0.324612 -0.072146
7.944055 -10.050329 -781.522681 0.986022 -0.161905 -0.039342
8.009811 -8.945797 -781.655218 0.995444 0.070577 0.064107
8.030361 -9.154177 -781.831265 0.998649 -0.033355 -0.039846
7.962965 -8.325251 -781.954677 0.981938 0.178320 0.063237
7.685579 -7.183267 -781.626903 0.942680 0.306654 0.131598
7.255659 -5.866703 -782.268792 0.899965 0.417468 0.125635
7.228659 -12.080053 -781.158339 0.854543 -0.507727 -0.109406
7.357741 -11.981092 -780.629017 0.850176 -0.513454 -0.116474
7.662417 -11.171453 -781.303582 0.937721 -0.322763 -0.128468
7.981625 -9.957022 -780.891147 0.996838 -0.057617 0.054726
7.875769 -8.706837 -780.436218 0.985027 0.129531 0.113771
7.779501 -7.833659 -781.033408 0.951107 0.254040 0.175669
7.868600 -8.125073 -781.266531 0.974738 0.192901 0.112582
7.524550 -6.847713 -781.292336 0.936613 0.304680 0.172992
7.368259 -12.020455 -780.306492 0.855745 -0.516460 -0.031152
7.556440 -11.720783 -780.004270 0.862865 -0.505182 -0.015963
7.700482 -11.429617 -779.744492 0.967973 -0.250415 -0.017908
7.880456 -10.149119 -779.459037 0.994106 0.005865 0.108258
7.745492 -8.720052 -779.652924 0.960917 0.206309 0.184592
7.874622 -9.524597 -779.439992 0.985735 0.129624 0.107347
7.669241 -7.969008 -780.247111 0.949909 0.253721 0.182477
7.175576 -6.511422 -780.300708 0.902385 0.332517 0.274106
7.138340 -12.245532 -778.480555 0.857306 -0.502366 0.112496
7.608979 -10.785990 -778.440612 0.959675 -0.176964 0.218422
7.682976 -11.147255 -779.071792 0.959980 -0.187196 0.208316
7.754823 -10.312765 -778.875623 0.975048 0.005753 0.221921
7.474061 -8.819653 -778.668147 0.902865 0.273388 0.331803
7.193408 -7.851686 -778.853499 0.881949 0.328687 0.337831
7.235450 -11.910223 -778.287264 0.849321 -0.398929 0.345701
7.258148 -10.928981 -777.628676 0.912935 -0.166378 0.372650
7.393300 -10.068971 -777.844729 0.916885 0.071463 0.392702
7.533528 -9.864844 -778.216579 0.924393 0.053338 0.377693
7.228844 -9.420497 -777.648974 0.878468 0.288771 0.380663
8.538769 -12.304050 -807.410389 0.645820 0.076078 -0.759689
8.552524 -12.851029 -807.063837 0.735278 -0.508630 -0.447953
8.808868 -11.950114 -806.933723 0.771766 -0.055628 -0.633468
8.483971 -11.748877 -807.396230 0.849403 0.100060 -0.518172
8.460921 -11.394124 -807.291233 0.690791 0.448680 -0.567004
8.230045 -10.101755 -806.590240 0.564273 0.510843 -0.648564
8.555048 -13.668482 -805.584853 0.570291 -0.778830 -0.261136
8.902348 -13.352804 -805.573957 0.719233 -0.611753 -0.329337
9.074505 -10.484346 -806.188896 0.529101 0.482321 -0.698154
8.345535 -8.900547 -805.745317 0.056731 0.615502 -0.786091
8.349876 -13.948437 -804.811684 0.588144 -0.803212 -0.094538
8.152112 -14.135856 -804.449183 0.597197 -0.797631 -0.084503
8.806011 -7.947336 -805.098858 -0.000808 0.457083 -0.889424
8.701790 -7.241539 -804.742069 -0.000815 0.441960 -0.897034
8.973876 -7.155169 -804.728034 -0.114454 0.343622 -0.932107
8.886725 -13.557966 -804.016484 0.589409 -0.805318 0.063715
8.354652 -6.084496 -804.237158 0.037125 0.310130 -0.949969
8.787508 -6.313030 -804.368374 -0.110157 0.435909 -0.893224
8.543559 -5.132276 -803.997079 0.038738 0.126382 -0.991225
9.036523 -3.925101 -803.765409 0.338004 -0.016371 -0.941002
8.181386 -3.106029 -804.126666 0.661823 -0.142410 -0.736009
8.562921 -3.423610 -803.907268 0.321383 0.310118 -0.894729
8.548744 -2.516087 -803.897299 0.489127 0.681812 -0.543955
8.948597 -13.391751 -803.129355 0.704286 -0.698760 0.125358
9.098547 -2.346119 -802.637908 0.353194 0.910764 -0.213924
8.415049 -2.035287 -803.340554 0.581158 0.810097 0.077445
8.238599 -13.457738 -801.525432 0.568456 -0.786948 0.239940
8.555975 -2.127981 -801.847262 0.334859 0.936930 0.100158
8.530738 10.037716 -801.484026 -0.477772 -0.624131 -0.618219
8.797874 11.273983 -802.270600 -0.126219 -0.072898 -0.989320
8.681223 10.766259 -802.142727 -0.485818 -0.445281 -0.752134
8.985897 12.115927 -802.267392 -0.030654 0.085154 -0.995896
8.932549 13.377246 -802.083815 0.025990 0.176513 -0.983955
8.426820 14.269780 -801.886492 0.106058 0.300813 -0.947767
8.158916 14.352374 -801.882223 0.025716 0.226911 -0.973576
8.202814 15.240983 -801.609851 0.181834 0.284162 -0.941376
8.865693 -12.940733 -801.332555 0.560147 -0.776523 0.288526
8.714655 -12.785674 -800.593282 0.568102 -0.776460 0.272709
8.546562 -2.176813 -801.360487 0.334749 0.936624 0.103339
9.043516 9.488408 -801.256535 -0.519716 -0.778868 -0.351084
8.252551 9.899910 -800.911793 -0.556367 -0.726803 -0.402757
8.302110 17.409850 -800.721107 0.362295 0.393367 -0.844988
8.180092 18.204422 -800.452143 0.369728 0.344280 -0.863002
8.130329 22.889590 -800.559920 0.466001 0.029706 -0.884285
8.361276 -12.960724 -800.334499 0.578892 -0.791207 0.197169
8.884774 -12.402295 -799.568783 0.603717 -0.775856 0.183228
8.861149 -2.433589 -800.197173 0.313569 0.938641 0.143624
8.530228 9.306569 -799.830569 -0.543814 -0.815059 -0.199865
8.507784 18.306791 -800.272451 0.365264 0.339715 -0.866704
9.004972 18.612649 -799.975076 0.454531 0.212049 -0.865122
8.881954 20.459583 -799.861909 0.553797 -0.000411 -0.832652
8.950046 19.569170 -799.805836 0.461567 -0.123167 -0.878514
8.618609 20.481902 -800.035673 0.546545 0.161304 -0.821748
8.541638 22.335935 -800.266092 0.801149 0.010115 -0.598380
8.793803 21.618477 -799.964466 0.821104 0.050580 -0.568534
8.640018 23.014596 -800.094950 0.800514 0.041066 -0.597906
8.688540 24.165978 -800.018235 0.587847 0.005517 -0.808953
8.874574 25.152256 -799.736096 0.588164 0.173984 -0.789806
8.604375 24.891053 -799.993106 0.580231 0.161620 -0.798255
8.625887 25.637683 -799.757292 0.565664 0.369226 -0.737357
8.154170 -12.869238 -799.315680 0.559848 -0.819548 0.122113
8.618076 -12.498914 -798.710267 0.521311 -0.849914 0.076685
8.608758 -2.494196 -799.229361 0.316697 0.938759 0.135777
8.219370 9.366047 -798.978117 -0.569296 -0.818353 -0.078737
9.053062 8.760134 -798.665703 -0.556463 -0.825195 -0.096960
9.025144 26.075914 -798.691966 0.926544 0.355155 -0.124020
8.382718 26.800787 -798.905125 0.683557 0.672350 -0.284068
8.979398 -12.273407 -798.198156 0.520463 -0.848531 -0.095460
8.879812 -2.726632 -798.069066 0.222209 0.966913 0.125312
8.533485 9.096462 -798.193989 -0.570915 -0.820865 0.015350
8.338222 9.241725 -797.873680 -0.577181 -0.816232 0.025062
8.243685 27.164705 -798.298880 0.710746 0.699094 -0.078150
8.886599 26.641671 -797.428103 0.765165 0.581070 -0.277273
8.778192 -12.608959 -796.547798 0.301762 -0.940169 -0.158183
8.351466 -2.775740 -796.677979 0.192551 0.973461 0.123686
9.079393 8.783428 -796.859012 -0.577561 -0.812788 0.076158
8.199495 9.442379 -796.498383 -0.575653 -0.813879 0.078895
8.969569 21.107603 -796.447574 0.961753 0.142147 0.234147
9.022645 21.796912 -796.931730 0.971444 0.029903 0.235376
8.958636 23.139958 -796.481583 0.970403 -0.084056 0.226388
8.989806 26.332523 -796.630317 0.991443 0.114314 0.063028
8.298336 27.458382 -797.045569 0.846630 0.528551 -0.062058
8.778971 26.786329 -797.318960 0.795442 0.604034 0.049134
8.319097 -12.830364 -796.098034 0.301994 -0.940893 -0.153365
8.780581 -2.975929 -795.663831 0.107891 0.977276 0.182457
8.648298 9.259419 -795.727180 -0.572424 -0.805915 0.151100
8.944787 8.996467 -796.022039 -0.553112 -0.815405 0.170827
8.950261 19.921841 -795.845018 0.895069 0.224752 0.385148
8.628381 20.893199 -795.513431 0.937888 0.074000 0.338953
8.818199 21.019730 -796.047962 0.910219 0.134530 0.391667
8.818065 21.682326 -796.177782 0.940269 0.020498 0.339814
8.825912 23.021205 -796.072998 0.950664 -0.082401 0.299079
8.932546 24.464106 -796.006359 0.966306 -0.093442 0.239837
8.854885 24.970632 -795.498812 0.978355 -0.105271 0.178158
8.984110 24.883489 -796.141610 0.969766 -0.040245 0.240696
8.918115 25.731648 -795.710763 0.977552 0.112712 0.178012
8.304238 27.353446 -795.694949 0.839202 0.528950 0.126300
8.160043 27.569714 -795.984377 0.645921 0.757190 0.097211
8.777460 -13.146153 -794.652881 0.140911 -0.944444 -0.296934
8.654727 -3.049861 -795.075015 0.108960 0.986954 0.118533
8.837399 9.274018 -795.197398 -0.537755 -0.792765 0.286955
8.189740 9.708800 -795.116997 -0.481071 -0.844824 0.234186
8.843488 19.465905 -795.354935 0.801040 0.295346 0.520678
8.768144 18.956110 -794.948093 0.791056 0.306752 0.529276
8.449886 19.712045 -794.811320 0.831302 0.128555 0.540749
8.185392 20.748856 -794.621897 0.875105 0.011200 0.483803
8.554544 20.944884 -795.341580 0.899769 0.070992 0.430552
8.354315 21.676893 -794.999955 0.901816 -0.022546 0.431532
8.513707 23.449182 -794.903271 0.933848 -0.169961 0.314707
8.476313 23.948086 -794.569933 0.954576 -0.167719 0.246280
8.877044 25.435457 -795.363556 0.965038 -0.119568 0.233250
8.694073 24.755974 -794.938004 0.963079 -0.103627 0.248474
8.819585 26.072117 -795.297680 0.969251 0.075311 0.234268
8.409146 26.821533 -794.967615 0.793200 0.513978 0.326590
8.901815 -13.547856 -793.601980 0.075944 -0.896276 -0.436946
8.504472 -13.446044 -793.896243 0.070213 -0.912079 -0.403958
8.408831 -3.141689 -794.187396 0.088243 0.990382 0.106565
8.828579 10.029693 -793.518210 -0.361100 -0.856423 0.368979
8.984923 16.101296 -793.414522 0.767806 0.345524 0.539524
8.749497 16.648326 -793.440850 0.736881 0.373470 0.563494
7.995585 18.440334 -793.611437 0.740797 0.353208 0.571370
8.113419 18.575042 -793.832774 0.761221 0.274529 0.587518
8.129703 23.297700 -794.168115 0.775984 -0.141229 0.614738
8.161612 25.157589 -793.866954 0.789685 -0.060442 0.610527
8.195743 26.225289 -794.062324 0.752262 0.162917 0.638404
8.589888 -13.741635 -793.148357 0.019429 -0.925175 -0.379044
8.381914 -3.364727 -792.444507 0.009607 0.990418 0.137767
8.983082 -3.344405 -792.684575 0.060256 0.994323 0.087699
8.468423 10.576971 -792.880587 -0.287542 -0.817700 0.498685
9.038195 13.961567 -792.501126 0.700272 0.239493 0.672505
8.864269 15.234520 -792.841910 0.720571 0.276699 0.635779
8.880881 16.284250 -793.388337 0.710987 0.319955 0.626199
8.418436 16.970469 -793.245076 0.703141 0.356756 0.615076
8.174552 -13.951296 -792.379282 -0.092278 -0.948388 -0.303390
8.180207 -3.501021 -791.413961 -0.037311 0.990068 0.135551
9.062304 -3.409832 -792.036716 0.009661 0.995938 0.089523
8.918669 10.805256 -792.404050 -0.112146 -0.474994 0.872814
8.147640 12.010307 -791.874930 0.357442 -0.221039 0.907401
8.225787 12.763376 -791.809423 0.585663 -0.052025 0.808883
8.376616 13.824586 -791.942913 0.578894 0.160091 0.799533
8.692026 14.074829 -792.234103 0.609362 0.208402 0.765014
8.268175 -14.165918 -791.092247 -0.227721 -0.973165 -0.033071
8.833914 -14.385072 -790.702369 -0.372877 -0.908134 -0.190408
8.686656 -3.537430 -790.966809 -0.038097 0.991803 0.121966
8.192841 -14.133698 -789.515776 -0.326656 -0.943819 0.050016
8.618589 -3.783623 -789.658869 -0.106440 0.974728 0.196408
8.474805 -3.719374 -790.056009 -0.093495 0.978505 0.183811
8.176719 -13.943005 -788.408802 -0.174818 -0.970674 0.165014
8.801735 -3.905560 -789.114337 -0.103694 0.949578 0.295888
8.381162 -13.797979 -788.116113 -0.072209 -0.879171 0.471004
8.945873 -13.464087 -787.434695 -0.073096 -0.792794 0.605091
8.744123 -4.462163 -787.716207 0.044894 0.869855 0.491260
8.401371 -12.717740 -786.643455 -0.055580 -0.742037 0.668051
8.153864 -13.067502 -787.064173 -0.068977 -0.748124 0.659964
8.456210 -4.712387 -787.282745 0.059814 0.784954 0.616660
8.376083 -11.903168 -785.589112 0.169557 -0.826303 0.537097
8.759321 -12.131511 -785.973183 -0.052500 -0.732399 0.678848
8.378875 -5.595155 -785.908340 0.388538 0.516981 0.762737
8.411434 -5.271861 -786.335016 0.257603 0.799263 0.542973
8.773117 -11.166499 -784.827811 0.328278 -0.617006 0.715218
8.641601 -10.977087 -784.599860 0.510498 -0.701917 0.496693
8.784001 -8.364464 -784.425087 0.631347 0.342948 0.695548
8.763192 -6.970563 -785.119877 0.597439 0.502467 0.624975
8.164677 -6.133019 -785.272245 0.588525 0.600957 0.540823
8.548582 -10.244535 -783.895418 0.636305 -0.175249 0.751268
8.464074 -10.091928 -783.778020 0.672836 -0.244291 0.698293
8.244975 -8.838205 -783.445426 0.831434 0.078903 0.549993
8.263541 -7.604771 -784.172831 0.834584 0.453346 0.312965
8.785383 -8.513725 -784.311281 0.818967 0.189217 0.541747
8.191089 -8.634114 -783.357869 0.979160 0.092922 0.180586
9.586232 -11.839697 -805.535730 0.884931 -0.198844 -0.421139
9.257557 -11.907843 -806.273393 0.948836 -0.069645 -0.307992
9.132502 -10.742393 -806.232432 0.870412 0.160371 -0.465472
9.767110 -9.678294 -805.748288 0.279039 -0.361690 -0.889560
9.147662 -9.933339 -806.056654 0.669014 0.124423 -0.732761
9.702783 -9.099266 -805.574306 -0.046057 0.241798 -0.969233
9.358277 -12.778786 -805.319098 0.867736 -0.490505 -0.080247
9.714571 -11.692502 -805.167802 0.938501 -0.289434 -0.188264
9.596857 -12.249918 -805.051907 0.969387 -0.217821 -0.113322
9.967288 -11.153852 -804.663996 0.926903 -0.287791 -0.240889
9.656801 -7.772891 -804.945821 0.104635 0.454574 -0.884542
9.466556 -6.930149 -804.546093 0.279634 0.342974 -0.896758
9.301817 -13.009838 -803.989808 0.858706 -0.510759 0.041831
9.185810 -13.170629 -803.490709 0.818708 -0.573678 -0.024725
9.816702 -11.882053 -804.143508 0.955191 -0.294581 -0.028847
9.721867 -6.594628 -804.303108 0.377511 0.463022 -0.801933
10.046448 -6.500572 -804.097350 0.385084 0.427283 -0.818009
9.169121 -5.142134 -803.892062 0.323207 0.271258 -0.906618
9.610742 -5.462078 -803.872356 0.231219 0.369413 -0.900040
9.381732 -3.269366 -803.461176 0.569603 0.269172 -0.776594
9.626721 -12.526454 -803.191615 0.773430 -0.632198 0.046174
9.981248 -11.610495 -803.125734 0.904010 -0.425789 -0.038330
9.651424 -3.551975 -803.350544 0.640445 0.314749 -0.700545
9.944722 -3.309278 -802.875768 0.738662 0.632885 -0.232026
9.772510 -3.303927 -803.126392 0.639161 0.320431 -0.699141
9.257155 -12.898785 -802.333178 0.760232 -0.621409 0.189468
9.622065 -12.185410 -801.818718 0.889923 -0.419154 0.179853
9.878688 -2.918529 -802.211593 0.649814 0.760075 0.005264
9.356738 -2.480167 -802.007043 0.598845 0.800850 0.004851
9.536012 9.324561 -801.549767 -0.486387 -0.690892 -0.534879
9.512684 9.942217 -801.886189 -0.526310 -0.386054 -0.757601
9.655213 11.084346 -802.337364 -0.073807 -0.073285 -0.994576
9.495151 12.237964 -802.285073 -0.045859 0.112670 -0.992574
9.377428 12.184311 -802.284841 -0.073738 0.084962 -0.993652
10.094180 12.479632 -802.284997 -0.045429 0.176390 -0.983271
9.565276 13.940786 -801.900580 0.027550 0.302404 -0.952781
9.135539 14.755656 -801.634081 0.150566 0.352418 -0.923651
9.854593 -11.619303 -800.657416 0.733347 -0.675710 0.074948
9.656765 -12.014831 -801.276916 0.804263 -0.514005 0.298261
10.099365 -2.931778 -801.059261 0.427126 0.904013 0.017990
9.934871 8.672094 -800.844782 -0.538153 -0.764423 -0.355032
9.436468 9.028231 -800.849973 -0.546696 -0.762692 -0.345579
8.477730 16.342959 -801.152513 0.353583 0.451813 -0.819050
8.672371 16.235775 -801.127613 0.353583 0.451813 -0.819050
9.822889 15.858007 -800.851541 0.319809 0.482803 -0.815245
9.082116 17.305036 -800.435280 0.363645 0.392038 -0.845026
9.164785 -12.150607 -799.496449 0.728205 -0.670972 0.139696
10.047004 -11.432658 -800.225861 0.648859 -0.756256 -0.084020
9.394572 -2.650795 -800.162591 0.422807 0.894871 0.142968
9.343902 8.821225 -800.121389 -0.570222 -0.796077 -0.202752
9.683101 17.062852 -800.282931 0.385282 0.411871 -0.825785
9.857385 17.762601 -799.883161 0.404514 0.340959 -0.848596
9.877848 17.562961 -799.952161 0.398785 0.334845 -0.853727
9.543581 18.709902 -799.667849 0.425549 0.265812 -0.865016
9.225504 20.606368 -799.534343 0.782029 0.147569 -0.605519
9.256948 24.245584 -799.464934 0.874722 -0.002712 -0.484617
9.236688 -12.081512 -798.536167 0.441302 -0.882307 -0.163666
9.586249 -2.853065 -798.516023 0.258979 0.961317 0.093811
9.973991 -2.949225 -798.998788 0.335240 0.942077 0.010269
10.062303 7.942275 -798.572590 -0.633568 -0.761529 -0.136619
10.021031 19.154017 -798.947696 0.783652 0.488507 -0.383731
9.538543 19.929408 -799.295149 0.876785 0.216741 -0.429269
9.345901 21.166024 -798.600189 0.954061 0.277346 -0.113343
9.240347 22.256019 -798.573739 0.994836 0.028552 -0.097394
9.158549 21.953024 -799.390267 0.992987 0.007745 -0.117967
9.163551 22.482374 -799.304424 0.986482 -0.132386 -0.096576
9.322734 24.452317 -798.985357 0.996860 -0.010766 -0.078453
9.280157 25.138245 -798.572284 0.990086 0.110097 -0.087227
9.153420 25.693613 -798.759980 0.951971 0.289070 -0.100943
9.481734 -12.152310 -797.436151 0.315433 -0.942999 -0.106087
9.196590 -2.848976 -797.636525 0.143679 0.981417 0.127192
9.781923 8.151464 -798.117060 -0.639493 -0.768651 0.014964
9.276491 8.562856 -798.323957 -0.618171 -0.785910 0.014465
9.782585 19.713708 -797.451017 0.885984 0.438208 0.151681
10.018736 19.484920 -798.085391 0.875870 0.452058 0.168802
9.541304 20.517664 -798.313252 0.947531 0.275447 0.162218
9.233834 21.889318 -798.156663 0.990826 0.028437 0.132117
9.241263 23.356799 -797.507046 0.985771 -0.126238 0.110998
9.325400 24.456192 -798.047715 0.992894 -0.003574 0.118949
9.329594 23.870897 -798.119321 0.993663 -0.010731 0.111887
9.279991 24.579222 -797.765041 0.986903 0.109743 0.118231
9.080809 26.147879 -797.465509 0.984491 0.175435 -0.000832
9.427478 -12.388534 -796.676202 0.210360 -0.949277 -0.233712
9.135718 -2.955744 -796.481629 0.052592 0.994177 0.094049
9.528512 8.379853 -797.354792 -0.642444 -0.762923 0.072211
9.457918 8.489344 -796.815423 -0.617235 -0.783714 0.069377
9.779903 19.086839 -796.690920 0.813094 0.448178 0.371503
9.725870 19.733336 -797.293040 0.856021 0.423388 0.296598
9.479549 19.833797 -796.808868 0.856955 0.335147 0.391542
9.132801 22.878651 -797.276133 0.956957 -0.122548 0.263088
9.212434 23.894545 -797.247428 0.977796 -0.003520 0.209527
9.215367 24.899880 -797.304519 0.990954 0.047467 0.125527
9.255502 -12.787569 -795.415606 0.084847 -0.959811 -0.267515
9.440653 -3.001646 -795.932686 -0.022683 0.994850 0.098789
9.802992 8.351805 -795.941984 -0.631699 -0.753540 0.182027
9.231597 8.804349 -795.955663 -0.606694 -0.778045 0.163000
9.760150 17.796295 -795.623389 0.754804 0.371430 0.540658
9.933807 17.802280 -795.868279 0.750187 0.375836 0.544028
9.374973 19.175698 -796.006131 0.763374 0.360713 0.535860
9.301029 19.757272 -796.362847 0.824912 0.322616 0.464154
9.485306 -12.978021 -794.991898 -0.056547 -0.936209 -0.346865
9.706665 -3.054345 -795.080787 -0.022789 0.999538 0.020091
9.441636 8.998684 -794.758226 -0.574228 -0.770924 0.275568
9.533511 8.798536 -795.114866 -0.587644 -0.752892 0.296359
9.752137 16.374069 -794.792186 0.816094 0.305301 0.490695
9.454165 17.164076 -794.812969 0.795616 0.257040 0.548568
9.235297 17.737476 -794.831607 0.761653 0.377531 0.526645
9.593368 -13.613706 -793.599574 -0.142843 -0.833951 -0.533031
9.274164 -13.515535 -793.670180 -0.129807 -0.866925 -0.481239
9.907812 -3.091365 -794.166620 -0.121834 0.992131 0.028871
9.841848 8.863876 -794.347792 -0.488335 -0.682957 0.543230
9.428529 9.717101 -793.536329 -0.412852 -0.786532 0.459260
9.644815 15.194490 -793.830841 0.789285 0.385329 0.478070
9.714028 15.703813 -794.318509 0.801027 0.299665 0.518224
9.529933 15.502767 -793.886385 0.805502 0.336344 0.487893
9.939923 -13.797923 -793.395491 -0.168440 -0.833035 -0.526954
9.613586 -3.211623 -792.861806 -0.244562 0.965884 0.085191
9.304496 -3.252268 -793.384634 -0.197217 0.979715 0.035564
9.925350 10.198698 -792.960256 -0.280401 -0.534197 0.797502
9.832458 10.938082 -792.598953 0.033342 -0.208217 0.977514
9.602661 11.931010 -792.306078 0.544598 0.245114 0.802080
9.384522 13.410924 -792.598450 0.597564 0.289573 0.747706
9.750196 12.624955 -792.612506 0.548515 0.215546 0.807881
9.195299 13.669826 -792.559283 0.696211 0.241299 0.676066
9.384773 14.916832 -793.248200 0.682200 0.309436 0.662460
9.379249 -14.331002 -791.827027 -0.376309 -0.882441 -0.282293
9.340730 -3.382431 -791.618279 -0.281154 0.955830 0.085687
9.546179 -3.287935 -792.014250 -0.245181 0.968330 0.047158
9.552459 11.749103 -792.253092 0.421625 0.116799 0.899217
9.985255 -14.891987 -790.930186 -0.476442 -0.870905 -0.120533
9.165991 -3.485545 -791.140581 -0.280013 0.952714 0.118020
10.034537 -14.820109 -789.696856 -0.308189 -0.919303 0.244749
9.169786 -14.485961 -789.607911 -0.275506 -0.955137 0.108670
9.643471 -3.456239 -790.158018 -0.320660 0.932423 0.166625
9.196453 -14.414384 -789.303473 -0.010237 -0.947872 0.318485
9.387972 -3.862570 -788.855041 -0.301326 0.910350 0.283665
9.758872 -3.611895 -789.229403 -0.319199 0.898358 0.301771
9.926559 -13.691388 -787.862066 -0.008480 -0.785204 0.619179
9.380206 -4.031595 -788.359432 -0.276940 0.836676 0.472522
10.070747 -3.915783 -788.202116 -0.158843 0.804033 0.572974
9.260115 -12.981231 -786.919986 0.202544 -0.727943 0.655038
9.857319 -4.589868 -787.345769 -0.129123 0.678244 0.723403
9.775104 -5.289503 -786.686395 0.069484 0.784461 0.616273
9.814431 -11.964909 -786.056655 0.217140 -0.668409 0.711393
9.222327 -12.013576 -785.863203 0.284545 -0.702869 0.651927
10.102382 -7.276222 -785.595650 0.248353 0.394921 0.884510
10.062567 -6.104458 -786.124003 0.244905 0.423356 0.872234
9.470330 -5.512856 -786.376853 0.064087 0.706129 0.705178
9.985188 -11.054054 -785.277323 0.325751 -0.613925 0.719015
9.559851 -10.150018 -784.558603 0.461440 -0.258987 0.848527
9.524669 -8.753046 -784.709434 0.353751 0.315097 0.880667
10.017336 -8.231588 -785.124512 0.342581 0.394050 0.852856
9.866867 -7.842352 -785.247667 0.303802 0.436012 0.847111
10.757103 -9.661847 -805.435787 0.290099 -0.360453 -0.886519
10.479616 -8.785259 -805.407353 0.303452 0.219062 -0.927323
10.938287 -9.692552 -804.986842 0.615308 -0.764531 -0.192064
10.661015 -8.685435 -805.137102 0.649039 0.384221 -0.656599
10.765759 -8.009855 -804.526645 0.598772 0.489190 -0.634165
10.481596 -8.254977 -805.000275 0.608088 0.501790 -0.615171
10.208209 -10.862267 -803.751140 0.915159 -0.378900 -0.137548
10.558335 -10.288544 -803.647381 0.766657 -0.631633 -0.115228
11.067379 -7.442090 -803.992646 0.459329 0.403139 -0.791515
10.710129 -7.276444 -804.126044 0.488522 0.434816 -0.756493
10.399802 -6.341151 -803.841912 0.477394 0.314978 -0.820295
10.278992 -5.362111 -803.582773 0.562771 0.313867 -0.764707
10.171762 -11.254670 -802.523239 0.849391 -0.493090 -0.188140
10.470539 -10.488869 -803.221754 0.759843 -0.627943 -0.168305
10.425249 -4.815736 -803.250970 0.592124 0.351008 -0.725384
10.355042 -4.780145 -803.289706 0.566339 0.312895 -0.762468
10.700762 -4.041603 -802.574695 0.583626 0.423514 -0.692832
10.676949 9.520489 -802.462387 -0.229050 0.015300 -0.973294
10.267562 10.417758 -802.454393 -0.105032 -0.111840 -0.988160
10.858613 11.062620 -802.476391 -0.041580 0.108160 -0.993264
10.265291 -11.135014 -802.161041 0.864820 -0.502047 0.005975
11.094593 -10.116650 -801.898668 0.754955 -0.623904 -0.201958
11.050840 -4.241473 -802.382102 0.794925 0.576845 -0.188000
10.350419 -3.182586 -801.595347 0.670371 0.729211 -0.137310
10.810210 8.923694 -802.181576 -0.561516 -0.608376 -0.560872
10.301266 9.070209 -801.852700 -0.511796 -0.628743 -0.585445
10.385417 11.983037 -802.339100 0.013818 0.112778 -0.993524
11.060313 12.535713 -802.258295 0.042466 0.273656 -0.960890
10.618371 14.102396 -801.713727 0.128805 0.481826 -0.866749
10.718394 13.720642 -801.894970 0.040247 0.411159 -0.910675
10.700066 -10.698790 -801.236738 0.757658 -0.652401 0.018071
11.117434 -10.611714 -800.325746 0.590276 -0.771208 -0.238354
10.972968 -3.729972 -801.001959 0.771144 0.631210 -0.083130
10.796584 -3.523881 -801.070018 0.674987 0.734233 -0.072764
11.075443 8.010182 -801.406163 -0.599257 -0.713384 -0.363283
10.646558 8.232188 -801.132914 -0.611907 -0.708711 -0.351140
10.886080 15.158610 -800.888115 0.181687 0.653051 -0.735197
10.409546 15.751161 -800.678070 0.336186 0.479980 -0.810308
10.642153 -11.151182 -799.534943 0.490923 -0.865875 -0.096199
10.778730 -3.406303 -800.018905 0.602375 0.791711 -0.101681
11.106475 7.385743 -800.103255 -0.655205 -0.724229 -0.214939
10.107835 8.108280 -799.596792 -0.638685 -0.740243 -0.210052
10.968311 16.059910 -800.216172 0.390534 0.527454 -0.754503
10.825027 17.145606 -799.588114 0.465338 0.419550 -0.779384
10.354934 17.538302 -799.693080 0.517947 0.327291 -0.790324
11.114599 -11.166128 -798.877858 0.451217 -0.795673 -0.404113
10.537611 -3.211406 -798.646202 0.351471 0.920563 -0.170388
10.139761 -3.015976 -798.714422 0.498530 0.866821 0.009448
10.399876 7.785791 -799.310604 -0.647743 -0.750741 -0.129678
11.032934 17.324823 -799.262275 0.703392 0.634180 -0.321024
10.816093 17.888527 -798.889421 0.835135 0.441633 -0.327887
10.149249 19.235097 -798.579974 0.790499 0.481913 -0.377982
11.103197 -11.525766 -798.129766 0.195019 -0.940898 -0.276909
10.142264 -3.012478 -798.003970 0.113656 0.993499 0.006557
10.925056 -3.216115 -798.027596 0.346549 0.907671 -0.236721
10.415657 7.613905 -798.253380 -0.646913 -0.762563 0.000970
10.625928 18.471114 -798.036397 0.872359 0.458959 0.168366
10.421305 18.772641 -797.926899 0.842508 0.513556 0.162604
10.151136 19.312905 -798.232533 0.848893 0.506094 0.152478
10.163863 -11.970316 -797.320493 0.068729 -0.938932 -0.337170
10.518773 -2.985281 -796.642487 -0.072905 0.997338 0.001097
10.637769 7.457911 -797.018937 -0.689038 -0.721376 0.069593
10.241835 7.853613 -796.529591 -0.662182 -0.745849 0.072273
10.626870 17.213526 -796.490073 0.821443 0.339913 0.457920
10.297672 18.285528 -796.790874 0.811062 0.426235 0.400626
10.129702 18.947030 -797.222158 0.790713 0.471407 0.390575
10.450902 -12.422851 -796.044389 0.067777 -0.925921 -0.371587
10.503282 -2.955665 -795.663173 -0.195404 0.980450 0.023139
10.837132 7.423328 -796.048127 -0.685708 -0.700960 0.196113
9.975128 8.333700 -795.414395 -0.644858 -0.743840 0.175674
10.737301 15.391079 -795.591008 0.639387 0.507919 0.577238
10.487190 15.569762 -795.434735 0.729369 0.312047 0.608808
10.687455 16.626432 -796.227147 0.750755 0.268402 0.603596
10.573520 17.155902 -796.362462 0.777937 0.321910 0.539618
11.050225 -13.387614 -794.518880 -0.054760 -0.822229 -0.566516
10.208425 -3.019017 -794.915465 -0.309374 0.950749 0.019110
10.996947 -2.810092 -794.904720 -0.194408 0.975456 -0.103398
10.372351 8.304828 -794.643107 -0.625976 -0.721495 0.295972
11.080255 14.344603 -794.941278 0.589612 0.650975 0.478111
10.474223 14.754063 -794.631283 0.682614 0.499433 0.533484
10.208673 16.053426 -795.336721 0.771504 0.328481 0.544868
10.682874 -13.495698 -794.173901 -0.202335 -0.856262 -0.475265
11.065855 -2.724815 -793.943975 -0.309009 0.949629 -0.052135
10.550456 8.361587 -794.255544 -0.569600 -0.669409 0.476914
10.798911 8.600858 -793.635026 -0.590662 -0.631000 0.502949
10.911997 13.746123 -794.082158 0.499471 0.593715 0.630897
10.978748 14.039278 -794.402074 0.541192 0.597515 0.591682
10.925383 -14.803909 -792.537982 -0.403587 -0.743367 -0.533406
10.529691 -14.464027 -792.709931 -0.417011 -0.719099 -0.555876
10.391660 -2.973425 -793.253749 -0.378840 0.925354 -0.014158
11.066613 9.110160 -792.853331 -0.543483 -0.580518 0.606321
10.544489 9.573347 -792.969760 -0.665699 -0.000084 0.746220
10.348256 10.066404 -792.912352 -0.205684 -0.528927 0.823365
10.147435 10.884969 -792.629234 0.297176 -0.198921 0.933872
11.101687 12.082126 -793.096997 0.276050 0.413852 0.867481
10.806297 12.605550 -793.222039 0.372164 0.476371 0.796596
10.284404 13.555382 -793.378441 0.548718 0.403037 0.732441
11.015403 -15.274782 -791.703764 -0.441039 -0.813403 -0.379290
10.167673 -3.128726 -791.823260 -0.432241 0.900690 0.043864
10.153238 -15.038904 -790.538453 -0.491793 -0.862491 -0.119369
11.033142 -15.471798 -790.814430 -0.453093 -0.888764 -0.069325
10.975985 -2.805140 -790.952357 -0.431016 0.898137 0.087030
10.192278 -15.008741 -790.266702 -0.114411 -0.959958 0.255717
10.705504 -15.125626 -790.086338 -0.391402 -0.769488 0.504671
11.078750 -2.847145 -790.168839 -0.412388 0.898840 0.148399
10.134032 -14.354859 -788.763373 -0.010056 -0.838532 0.544759
10.645669 -14.013580 -788.415185 0.153274 -0.683952 0.713244
10.944168 -3.306745 -788.632783 -0.403903 0.863594 0.301775
10.757136 -13.585503 -787.990839 0.249449 -0.760409 0.599627
11.095763 -12.632222 -787.308898 0.334987 -0.603728 0.723392
10.366276 -4.017313 -787.921905 -0.279074 0.782267 0.556935
10.686382 -3.511568 -788.392522 -0.350621 0.769314 0.534061
10.817319 -11.848758 -786.413295 0.369507 -0.642855 0.670971
10.437025 -4.715854 -787.079553 -0.201079 0.664240 0.719967
10.909089 -4.775426 -786.901343 -0.052854 0.577475 0.814696
10.419770 -11.892246 -786.242032 0.362308 -0.638349 0.679149
10.973729 -11.271146 -785.997276 0.389832 -0.566677 0.725885
10.716924 -7.752970 -785.486410 0.090188 0.247987 0.964556
10.524133 -7.302463 -785.617321 0.086318 0.374600 0.923160
10.921878 -5.529666 -786.370543 -0.054703 0.348477 0.935720
10.506985 -6.355360 -786.038317 0.047458 0.435660 0.898859
10.363761 -10.342573 -785.047190 0.441034 -0.262000 0.858397
10.816619 -9.112094 -785.097872 0.481769 0.085547 0.872113
10.180286 -8.827247 -784.939497 0.265697 0.324771 0.907705
11.088979 -8.341331 -785.362701 0.272114 0.248408 0.929649
11.133930 -9.645148 -803.777726 0.823823 -0.566378 0.023052
11.218963 -9.322983 -803.844898 0.999390 -0.014291 0.031881
11.352919 -8.276848 -803.860674 0.901869 0.208455 -0.378390
11.365268 -6.888918 -803.507621 0.576594 0.352794 -0.736937
11.715996 -8.979367 -802.516622 0.802437 -0.483067 -0.350344
11.381139 -9.508599 -802.667549 0.907867 -0.361876 -0.211715
12.044512 -8.265843 -802.613651 0.651865 -0.483676 -0.584063
11.686700 -6.573097 -803.080921 0.606591 0.323524 -0.726209
11.436615 -5.615279 -802.782739 0.627443 0.409161 -0.662497
11.353359 -5.281825 -802.682252 0.645107 0.346229 -0.681147
12.036852 8.653894 -802.619227 -0.308426 -0.051689 -0.949843
11.784812 10.224045 -802.606405 -0.048448 0.089954 -0.994767
11.379237 9.669719 -802.596126 -0.122463 0.015603 -0.992350
11.332061 10.864075 -802.519284 -0.048360 0.108127 -0.992960
11.393039 -9.623022 -802.269454 0.709369 -0.658749 -0.250691
11.780101 -9.020959 -802.290204 0.819976 -0.493626 -0.289780
11.947908 -5.616674 -801.981923 0.835355 0.497738 -0.233321
11.358099 -4.708073 -802.328296 0.855610 0.459206 -0.238875
11.281276 -4.338522 -801.799971 0.793783 0.568214 -0.216887
11.728761 7.792014 -801.803748 -0.423021 -0.701883 -0.573074
11.121341 8.829631 -802.399138 -0.529884 -0.419379 -0.737119
11.665410 11.770117 -802.391367 -0.003881 0.209887 -0.977718
12.021559 12.511927 -802.234332 0.029988 0.273780 -0.961325
11.378049 14.388509 -801.425742 0.183568 0.477031 -0.859502
11.374901 -10.117234 -801.176326 0.672650 -0.624650 -0.396680
11.316354 -10.253240 -800.934822 0.595633 -0.760071 -0.259834
11.607907 -4.621630 -801.272719 0.861111 0.458388 -0.219928
11.594525 -4.470083 -800.969650 0.796151 0.569910 -0.203337
11.850676 7.010926 -800.843804 -0.641723 -0.659486 -0.391497
11.381269 7.498772 -800.903246 -0.596527 -0.715211 -0.364182
11.936960 14.750526 -800.877339 0.364504 0.682354 -0.633664
11.365410 14.795131 -801.063142 0.266317 0.641102 -0.719766
11.903671 -10.983052 -798.866371 0.276950 -0.800331 -0.531760
11.687183 -10.522428 -799.904639 0.530217 -0.676595 -0.510968
11.868476 -4.287977 -799.569103 0.593057 0.712809 -0.374415
11.212264 -3.787668 -799.950745 0.750589 0.649755 -0.120140
11.484941 7.042605 -800.187228 -0.682388 -0.700878 -0.207644
11.701556 15.337252 -800.378512 0.377100 0.705933 -0.599545
11.859381 15.747754 -799.913529 0.525196 0.590124 -0.613126
11.215839 16.551030 -799.715661 0.583795 0.441249 -0.681530
11.339776 -3.647318 -799.190149 0.591796 0.711293 -0.379262
11.864449 -3.759931 -798.468985 0.451144 0.870666 -0.195983
11.990204 6.025261 -798.423424 -0.761085 -0.629092 -0.158091
11.379975 6.772708 -798.712067 -0.712465 -0.690500 -0.124912
12.079037 16.074418 -798.864610 0.819470 0.571597 -0.041784
11.143433 17.388435 -798.866065 0.832805 0.493894 -0.250009
12.073438 -11.583968 -797.800286 0.114558 -0.859170 -0.498702
11.710845 -3.594009 -798.300179 0.394167 0.760706 -0.515712
11.827882 -3.463394 -797.915521 0.226313 0.927960 -0.296095
12.104364 5.864018 -798.178008 -0.779727 -0.623849 -0.053277
11.361030 6.706787 -797.827416 -0.738142 -0.674418 -0.017535
12.051976 15.794669 -797.566405 0.834696 0.504779 0.220184
11.524051 16.607308 -797.411773 0.852415 0.486587 0.191367
11.872671 -12.040621 -796.919828 0.001893 -0.901522 -0.432730
11.132837 -11.836485 -797.342042 -0.053213 -0.920643 -0.386762
11.915272 -2.765363 -796.616029 0.065924 0.880153 -0.470090
12.049906 5.878917 -797.262350 -0.797316 -0.602713 0.032004
11.247654 6.877026 -796.720384 -0.742256 -0.667629 0.057683
11.504676 15.525370 -796.544847 0.714299 0.428635 0.553218
11.600284 15.872371 -796.937638 0.713769 0.431648 0.551555
11.506935 -12.763399 -795.559047 -0.160413 -0.848747 -0.503881
11.504090 -12.254929 -796.398960 -0.051208 -0.885963 -0.460920
11.530449 -2.808709 -796.206034 -0.261903 0.960054 -0.098502
11.712618 6.434172 -796.154527 -0.788661 -0.596170 0.150319
11.544972 6.593938 -796.310741 -0.736139 -0.662127 0.140308
11.645058 14.451346 -795.605856 0.449338 0.722476 0.525475
11.504344 14.677008 -795.729615 0.534519 0.602745 0.592443
11.297489 15.155344 -795.990768 0.612926 0.521960 0.593194
11.926489 -13.014117 -795.289205 -0.153784 -0.813669 -0.560618
11.227825 -2.714252 -794.728105 -0.433552 0.896108 -0.094987
11.818147 -2.313928 -794.657824 -0.583301 0.791242 -0.183565
11.829297 6.668964 -794.971228 -0.763877 -0.586240 0.269842
11.510263 6.917023 -795.271002 -0.734742 -0.611909 0.292784
11.429055 14.057802 -794.872215 0.451158 0.725403 0.519854
12.052659 -14.064315 -794.142828 -0.362615 -0.684651 -0.632268
11.314774 -14.250016 -793.545477 -0.357629 -0.721069 -0.593431
10.723349 -13.746517 -793.875859 -0.274079 -0.750415 -0.601464
11.961777 -2.108744 -793.765866 -0.592596 0.803850 -0.051527
12.030699 7.215770 -793.773501 -0.701200 -0.539276 0.466368
11.668822 7.552790 -793.906968 -0.653702 -0.619389 0.434777
11.774463 12.352647 -793.558990 0.421243 0.498183 0.757871
11.332527 12.568599 -793.462668 0.443748 0.538610 0.716231
11.292654 13.616861 -794.242713 0.444649 0.613845 0.652290
11.854118 -15.222560 -792.610774 -0.358423 -0.747972 -0.558633
11.150981 -2.643532 -792.456784 -0.523160 0.852178 -0.009783
11.355030 -2.525192 -793.060301 -0.572159 0.820073 -0.010699
12.068387 8.045297 -792.939904 -0.558362 -0.522505 0.644376
11.296001 9.209559 -792.628035 -0.548838 -0.545575 0.633344
11.670593 10.149937 -792.510727 0.095754 -0.000111 0.995405
12.048629 11.230206 -793.023421 0.081100 0.531649 0.843073
12.057824 11.675522 -793.287442 0.300597 0.505913 0.808513
11.197753 12.440147 -793.312201 0.406314 0.393449 0.824686
11.627256 -15.280608 -792.355258 -0.411862 -0.825872 -0.385104
11.935601 -2.122411 -792.230388 -0.571472 0.819089 0.050128
12.095505 9.129736 -792.340904 -0.181732 -0.243265 0.952783
11.953316 -15.725407 -790.456364 -0.220579 -0.974229 -0.047139
11.198916 -2.707991 -790.756014 -0.509050 0.856724 0.083017
11.777815 -2.380766 -790.447766 -0.551641 0.828966 0.092234
11.925856 -15.469971 -790.003375 -0.188026 -0.819158 0.541873
11.358503 -2.660525 -790.332889 -0.502280 0.853155 0.140856
12.101636 -2.204032 -790.213755 -0.548078 0.823611 0.145862
11.800415 -14.911808 -789.397646 -0.030368 -0.618495 0.785201
11.295789 -14.045832 -788.613618 0.259132 -0.668489 0.697118
11.160941 -3.050453 -789.055496 -0.490809 0.823773 0.283733
11.176004 -13.550852 -788.108590 0.253222 -0.653243 0.713549
11.694080 -12.627653 -787.608970 0.350388 -0.592860 0.725083
11.221276 -3.621696 -787.920372 -0.342695 0.710396 0.614734
11.498902 -3.290596 -788.123554 -0.367581 0.687743 0.626014
11.833109 -12.101349 -787.190430 0.370100 -0.665962 0.647704
11.620723 -11.545996 -786.530833 0.339749 -0.654641 0.675290
11.623312 -5.127451 -786.582159 -0.089702 0.576249 0.812337
11.581423 -3.988928 -787.326277 -0.295291 0.612129 0.733554
11.202806 -11.371371 -786.191837 0.332423 -0.581095 0.742848
11.798651 -10.826341 -785.920191 0.136183 -0.695983 0.705027
12.040444 -10.056019 -785.533906 0.182567 -0.273181 0.944480
11.546056 -7.824712 -785.640964 0.255885 0.179921 0.949816
11.653510 -7.351658 -785.762023 0.255235 0.193079 0.947405
11.470740 -6.898773 -785.860456 0.062354 0.375272 0.924815
11.229744 -5.997058 -786.178849 -0.051709 0.348563 0.935858
11.179720 -9.594275 -785.252548 0.165193 -0.246592 0.954936
11.132860 -8.790536 -785.301163 0.326428 0.092280 0.940707
12.474828 -7.505414 -802.416586 0.884741 0.160669 -0.437515
13.033387 8.384444 -802.732563 -0.234863 -0.267224 -0.934575
12.946453 9.462064 -802.728388 -0.045093 0.044107 -0.998009
12.915045 10.208874 -802.647505 -0.021459 0.113247 -0.993335
13.047893 11.102380 -802.504757 0.020590 0.185220 -0.982481
12.612147 10.923238 -802.544001 -0.021364 0.146960 -0.988912
12.305128 -8.437070 -801.802463 0.901808 -0.225452 -0.368664
12.436873 -6.532467 -801.590760 0.962488 0.220891 -0.157559
12.452263 -7.083512 -802.174063 0.963253 0.174927 -0.203824
12.108396 -5.711973 -801.549343 0.913985 0.373263 -0.159079
12.306574 7.195979 -801.682142 -0.584474 -0.557022 -0.590015
12.178430 11.872132 -802.367065 0.057986 0.208556 -0.976290
13.102598 11.824567 -802.346725 0.023991 0.244250 -0.969416
12.337083 12.603205 -802.179684 0.055374 0.357360 -0.932324
13.085092 13.599786 -801.514405 0.286635 0.655017 -0.699138
12.248995 -9.329338 -800.856925 0.758894 -0.490374 -0.428501
12.853042 -7.598665 -800.989971 0.929892 -0.058276 -0.363188
12.695588 -7.855883 -801.262504 0.846222 -0.211556 -0.489032
12.817521 -7.305080 -800.962497 0.911117 0.209102 -0.355165
12.503601 -6.271895 -800.985414 0.881743 0.364651 -0.299265
12.124691 -5.522606 -801.171106 0.835095 0.485208 -0.259211
12.454423 6.237658 -800.635692 -0.712836 -0.571446 -0.406588
12.357844 6.511479 -800.851444 -0.667720 -0.635505 -0.387665
12.905327 14.160609 -800.936554 0.326015 0.745007 -0.581961
13.113378 -9.712153 -799.635693 0.562310 -0.548635 -0.618714
12.583841 -10.082480 -799.671360 0.427516 -0.722751 -0.543011
12.918864 -9.159362 -800.169599 0.627225 -0.360968 -0.690138
12.996549 -5.637809 -799.465501 0.805749 0.338890 -0.485717
12.885630 -5.441544 -799.473043 0.733118 0.546807 -0.404401
12.869990 5.198987 -799.532320 -0.783630 -0.565171 -0.257887
12.401362 6.074630 -800.215570 -0.746923 -0.617357 -0.246933
12.762698 14.956522 -799.920678 0.473742 0.777519 -0.413562
12.439472 15.299077 -799.810976 0.576926 0.622569 -0.528739
12.517863 -10.859438 -798.746416 0.259043 -0.804424 -0.534602
12.804574 -10.427644 -799.188017 0.352734 -0.584831 -0.730446
12.848962 -4.866197 -798.982358 0.660519 0.497900 -0.561970
12.342410 -4.429021 -799.158694 0.510316 0.758854 -0.404621
13.011702 4.783009 -798.914507 -0.804560 -0.562419 -0.190706
12.352047 5.704707 -798.980053 -0.770880 -0.613560 -0.171135
12.961693 15.126740 -798.600974 0.686826 0.726154 0.031152
12.347136 15.737859 -798.828693 0.776616 0.628298 -0.045929
12.221506 -11.326612 -798.189211 0.142182 -0.845695 -0.514378
12.999342 -3.533270 -797.829579 0.061166 0.493433 -0.867630
12.696288 -3.399987 -797.659753 0.039250 0.829750 -0.556753
12.856071 4.701735 -797.820289 -0.812914 -0.568227 -0.127628
12.864682 4.622868 -797.483449 -0.852269 -0.519884 -0.057954
12.588411 15.463165 -798.382483 0.667084 0.705282 0.239950
12.423033 15.301262 -797.429718 0.657161 0.719767 0.223776
12.974199 -11.944679 -797.222331 -0.031923 -0.865116 -0.500556
12.270187 -12.081642 -796.876113 -0.121255 -0.894871 -0.429538
12.809719 -2.865942 -797.079625 -0.412369 0.668055 -0.619399
13.031867 4.295696 -797.229722 -0.894645 -0.445343 -0.035786
12.864736 4.564829 -796.653273 -0.853206 -0.520456 -0.034128
12.174124 5.706018 -797.331448 -0.809893 -0.586292 0.018304
12.425094 14.571225 -796.422837 0.546626 0.707207 0.448395
12.192610 15.220718 -797.040263 0.585357 0.641123 0.496305
12.904732 -12.970313 -795.694876 -0.153460 -0.750690 -0.642584
12.581057 -1.907924 -795.608472 -0.687534 0.666357 -0.288557
13.059837 -1.733698 -796.265451 -0.663335 0.649831 -0.371089
12.830525 4.628928 -796.343187 -0.875028 -0.478990 0.069956
12.775901 4.841365 -795.635272 -0.886118 -0.451613 0.104119
12.343590 5.616981 -795.753023 -0.842714 -0.525733 0.115924
12.431355 14.354913 -796.145917 0.458373 0.716244 0.526202
12.574957 -13.574959 -794.885804 -0.281807 -0.624304 -0.728580
12.946469 -13.489472 -795.108341 -0.262191 -0.686854 -0.677855
12.525677 -1.725117 -794.768415 -0.670186 0.730741 -0.129882
13.168128 4.489437 -794.643123 -0.870942 -0.442181 0.214325
12.855184 5.177542 -794.553618 -0.875261 -0.420852 0.238333
12.462968 5.867399 -794.633786 -0.842210 -0.487943 0.229334
12.965747 12.635560 -794.556070 0.499882 0.614401 0.610434
12.458123 13.748619 -795.348251 0.449325 0.701949 0.552607
12.381281 -14.871147 -793.484539 -0.422367 -0.669043 -0.611545
13.170741 -14.770315 -794.065026 -0.389709 -0.645982 -0.656380
12.220750 -1.912226 -793.965462 -0.675158 0.736162 -0.047188
12.879474 -1.256083 -794.246696 -0.785547 0.618128 -0.028867
13.130320 4.975343 -794.090957 -0.838506 -0.402368 0.367434
12.749073 5.931242 -793.827051 -0.808986 -0.429801 0.401015
12.240289 7.159107 -793.476709 -0.778239 -0.478497 0.406675
12.949414 11.589629 -793.731228 0.422069 0.548589 0.721739
12.275489 12.303564 -793.822840 0.487485 0.479607 0.729613
12.599034 -15.552915 -792.736397 -0.363426 -0.834946 -0.413264
12.256721 -15.083815 -793.103107 -0.455057 -0.720825 -0.522814
12.502237 -1.641409 -792.724999 -0.655536 0.754839 0.022157
12.689149 -1.476685 -792.410816 -0.752100 0.658559 0.025421
12.734236 7.022347 -793.063304 -0.625135 -0.384362 0.679317
12.118840 7.871951 -793.036731 -0.575246 -0.515189 0.635352
12.292069 8.403349 -792.502302 -0.346980 -0.264684 0.899748
12.721832 10.175580 -792.628599 0.355752 0.523802 0.773997
12.431330 10.856360 -792.953873 0.384954 0.498700 0.776600
12.653925 -15.833094 -791.790839 -0.255560 -0.928295 -0.270106
12.416127 -15.642742 -792.358207 -0.396269 -0.910403 -0.118899
12.673467 -1.528048 -792.061277 -0.644528 0.762526 0.056009
13.018215 8.174983 -792.325084 -0.254504 -0.194141 0.947384
13.001552 8.694417 -792.293355 -0.257859 0.110300 0.959866
12.674906 -15.902244 -791.170446 -0.260417 -0.945938 0.193350
12.593841 -15.815336 -790.441951 -0.102504 -0.994217 0.032014
12.379340 -1.905606 -790.717165 -0.624571 0.773760 0.105863
12.799477 -15.611818 -790.112982 -0.081781 -0.793219 0.603420
12.907426 -15.340989 -789.792407 0.069094 -0.616705 0.784156
12.249763 -2.164410 -789.834181 -0.582868 0.800116 0.141701
12.244006 -14.676428 -789.215484 0.096874 -0.615870 0.781869
13.028243 -13.690818 -788.715684 0.106901 -0.494120 0.862796
12.466967 -13.483691 -788.468522 0.185608 -0.474944 0.860219
12.926913 -2.122878 -788.496491 -0.525353 0.782546 0.334104
12.159341 -12.986493 -788.060539 0.249237 -0.549058 0.797757
12.641126 -12.162343 -787.679922 0.259964 -0.489939 0.832093
12.488842 -12.039085 -787.528029 0.409723 -0.598570 0.688362
12.934570 -2.908748 -787.771120 -0.436004 0.526502 0.729860
12.299010 -11.547949 -786.911543 0.440520 -0.643561 0.625917
12.521071 -4.576742 -786.721669 -0.119156 0.213346 0.969683
12.450098 -5.249542 -786.477761 0.127962 0.433787 0.891883
12.620446 -4.095235 -787.021800 -0.100160 0.570595 0.815101
12.156865 -10.691173 -785.868317 0.344415 -0.659545 0.668116
12.927904 -11.319436 -787.078428 0.409984 -0.718974 0.561240
12.548311 -10.154544 -785.763781 0.433592 -0.323321 0.841107
12.820304 -8.765647 -785.892287 0.374796 0.237399 0.896197
12.196289 -9.039965 -785.558175 0.375560 0.238247 0.895652
12.502980 -7.636460 -785.975523 0.346774 0.174569 0.921560
12.547684 -7.275790 -786.032522 0.351281 0.071487 0.933537
12.753507 -6.458965 -786.223151 0.239869 0.131674 0.961834
12.201411 -6.394412 -786.099630 0.130369 0.240267 0.961913
13.864060 6.989371 -802.692585 -0.637813 -0.041999 -0.769046
13.153654 7.202847 -802.459825 -0.301739 -0.414337 -0.858649
13.175318 7.997299 -802.703723 -0.325733 -0.186406 -0.926904
13.592611 9.371115 -802.758452 -0.021856 0.118818 -0.992675
13.740170 10.425074 -802.617246 0.019171 0.153556 -0.987954
13.339963 11.452589 -802.426013 0.049117 0.185198 -0.981473
13.924774 10.771364 -802.539567 0.018932 0.218371 -0.975682
14.116469 4.705337 -802.149472 -0.840722 -0.377745 -0.387936
13.627400 6.006435 -802.197050 -0.841084 -0.326088 -0.431560
13.300645 6.285395 -801.928686 -0.659154 -0.511626 -0.551140
13.760821 12.029929 -802.206858 0.271573 0.439008 -0.856458
13.620716 11.759180 -802.334405 0.054481 0.243781 -0.968299
13.443227 12.986135 -801.723249 0.340868 0.499081 -0.796697
13.706155 4.437115 -800.641609 -0.919795 -0.259926 -0.293966
13.737182 4.593516 -800.962192 -0.856144 -0.438346 -0.273624
13.155937 5.542290 -800.904763 -0.786070 -0.503657 -0.358361
13.715571 13.802157 -800.754877 0.480978 0.696240 -0.532832
13.183676 -9.816533 -799.473557 0.597605 -0.531959 -0.599906
13.466448 -8.977520 -799.546499 0.700333 -0.123609 -0.703032
13.347500 -8.379556 -799.902354 0.832507 0.066018 -0.550066
13.006828 -6.914075 -800.244327 0.838314 0.236203 -0.491364
13.233672 -6.398393 -799.584903 0.816592 0.323090 -0.478320
14.076105 2.885780 -800.045812 -0.940639 -0.293977 -0.169636
13.936346 3.690702 -800.503840 -0.916976 -0.344503 -0.201180
13.425308 4.337069 -799.532300 -0.880671 -0.396654 -0.259005
13.195530 4.946902 -799.996787 -0.815841 -0.526096 -0.240057
14.118204 13.929838 -799.978908 0.622971 0.730182 -0.280609
13.568263 -10.639669 -798.689590 0.218315 -0.711124 -0.668312
13.981847 -10.150615 -798.699315 0.350675 -0.171707 -0.920622
14.124793 -9.046442 -798.658586 0.885180 0.088834 -0.456688
13.709777 -8.938752 -799.305105 0.720374 -0.127146 -0.681832
14.053744 -8.026421 -798.545441 0.882019 0.131794 -0.452407
13.577369 -6.526247 -799.039636 0.881579 0.129504 -0.453925
13.621485 -6.400710 -798.857998 0.838690 0.331833 -0.431841
13.415096 -5.601059 -798.830434 0.807085 0.166502 -0.566472
14.026426 2.718505 -799.468875 -0.944394 -0.300835 -0.132736
13.719549 3.364655 -798.902736 -0.923074 -0.340343 -0.179169
13.529613 3.835273 -798.969878 -0.897833 -0.404384 -0.174270
13.917629 14.315405 -799.282978 0.648696 0.760334 0.032954
13.501090 14.678439 -799.368536 0.656013 0.754013 0.033325
13.398227 -11.544472 -797.785667 0.041178 -0.718499 -0.694308
13.664497 -11.246711 -798.017194 0.045896 -0.631771 -0.773795
14.046205 -6.146108 -797.999347 0.768684 0.012919 -0.639499
13.787792 -4.798220 -798.068583 0.421439 -0.018662 -0.906665
13.815717 -3.753919 -797.900427 -0.127139 -0.024122 -0.991591
13.150809 -3.660603 -797.878578 0.374627 0.458358 -0.805954
13.820030 -2.566906 -797.569844 -0.519165 0.166333 -0.838332
14.063000 -1.422775 -797.504132 -0.744241 0.097292 -0.660787
13.967306 2.327390 -798.275643 -0.965383 -0.215962 -0.146273
13.654855 3.153602 -798.095579 -0.928147 -0.344681 -0.140489
13.414950 3.678082 -797.952306 -0.894506 -0.424484 -0.140258
13.242909 3.878579 -797.439201 -0.898770 -0.417913 -0.132520
14.012517 13.977179 -797.577510 0.614738 0.763278 0.198757
13.542433 -12.084139 -797.009554 -0.022499 -0.865338 -0.500684
13.965377 -12.007299 -797.182102 -0.153163 -0.792092 -0.590873
13.468974 -2.072963 -797.003603 -0.782499 0.307522 -0.541411
13.495887 -1.393696 -796.705743 -0.817340 0.110202 -0.565518
13.655647 -0.746854 -796.574146 -0.861669 0.345529 -0.371665
13.850347 -0.007689 -796.711807 -0.955550 0.202099 -0.214662
13.967442 0.816809 -796.893448 -0.973103 -0.073086 -0.218468
13.959070 1.537437 -796.992602 -0.964935 -0.222514 -0.139240
13.744808 2.281362 -796.584067 -0.973131 -0.199297 -0.115316
13.490184 3.058845 -796.441895 -0.945046 -0.318386 -0.074281
13.135810 4.025481 -796.865559 -0.917276 -0.394943 -0.051224
13.533925 14.017335 -796.855755 0.577249 0.716730 0.391257
13.748466 -12.607440 -796.339671 -0.158626 -0.717839 -0.677897
13.488707 -13.280287 -795.519503 -0.237834 -0.716107 -0.656221
13.394103 -1.023029 -796.013975 -0.912536 0.365927 -0.182690
13.660607 -0.492539 -796.313508 -0.960114 0.203064 -0.192215
13.764427 0.188789 -796.107598 -0.955010 0.269599 -0.123578
13.779430 0.688898 -795.579534 -0.994844 0.041087 -0.092719
