-19.355122 13.461736 459.561087 -0.517197 0.405654 -0.753626
10.867490 12.843482 459.597834 -0.679068 -0.307436 0.666596
25.682240 12.325389 459.521503 0.545358 0.744329 -0.385432
-7.378974 11.273829 459.680708 0.764714 -0.163139 0.623376
27.176838 10.634294 459.649251 0.171198 0.971099 -0.166307
27.356202 9.993833 459.593183 0.305260 0.934594 0.182621
-8.773734 9.155960 459.551960 0.851352 -0.267290 0.451393
-22.893097 7.996768 459.715763 -0.772613 0.625912 0.106317
26.359399 7.440949 459.695359 0.518805 0.683315 0.513734
14.574700 6.399459 459.630706 -0.898202 -0.399936 0.182441
-10.144234 5.314402 459.623246 0.768775 -0.635750 -0.069331
14.516777 4.328128 459.661865 -0.851699 -0.501483 -0.152063
-18.325166 3.280778 459.526845 -0.267832 0.171359 0.948104
4.143872 3.068701 459.683859 0.108149 0.495984 -0.861571
-4.356301 2.858972 459.665396 -0.181192 0.417543 -0.890408
4.978478 2.829891 459.657755 0.246613 0.416859 -0.874877
-7.142264 2.473511 459.513326 -0.141639 0.144843 -0.979264
13.586240 2.548537 459.626314 -0.531108 -0.597670 -0.600596
10.590277 2.274816 459.689611 0.050340 0.374169 -0.925993
-21.127994 2.036266 459.669523 0.423250 0.613993 0.666237
-21.661879 1.684377 459.581335 0.224466 0.703895 0.673904
-14.996955 0.215412 459.670860 -0.709276 -0.693991 0.123710
-14.682393 -1.292697 459.490172 -0.714205 -0.650990 -0.257142
-15.143794 -1.960196 459.578647 -0.536797 -0.677487 -0.502852
-20.850062 -2.716260 459.583789 0.478704 0.111932 -0.870812
-18.502279 -3.265194 459.509452 0.030771 -0.066940 -0.997282
25.278045 -4.016711 459.688960 0.090516 -0.221160 -0.971028
27.750486 -5.427065 459.545579 0.877577 0.437917 -0.195162
-15.292366 -6.645185 459.672803 0.048682 -0.825038 0.562976
27.227113 -7.148198 459.729996 0.861107 -0.052004 0.505758
-17.376043 -7.603598 459.623752 0.131906 -0.825807 0.548309
-11.133485 -7.984169 459.634325 -0.064235 -0.865220 0.497261
-22.661513 -8.353780 459.601995 -0.908873 -0.375505 -0.181511
17.438890 -8.356756 459.695537 -0.010104 -0.945777 0.324661
14.214916 -8.580259 459.602556 0.231335 -0.517688 0.823701
19.839867 -9.099856 459.542074 -0.455027 -0.850636 0.263378
19.883684 -9.264257 459.580355 -0.471127 -0.825508 0.310766
-18.555567 -9.504465 459.733984 0.772476 -0.466449 -0.430936
22.335567 -9.690424 459.689309 -0.014717 -0.860216 0.509718
8.738554 -10.046127 459.719909 0.322707 -0.077442 0.943326
-21.513533 -10.623351 459.746342 -0.997105 -0.012930 0.074932
-1.375647 -11.271631 459.684513 -0.505923 -0.054352 0.860864
-14.281989 -11.773555 459.520491 0.663057 -0.477277 -0.576682
3.740427 -12.365946 459.527035 0.284671 0.099906 0.953405
-18.984337 -12.721664 459.606095 -0.410833 0.281838 0.867055
-13.381259 -13.718611 459.505580 0.538108 -0.826867 0.163495
7.496787 38.517804 459.832563 -0.255339 0.171541 -0.951512
9.565138 38.279736 459.801027 0.531184 0.297250 -0.793401
1.655864 37.150811 459.862904 0.800420 -0.129273 -0.585335
2.147073 35.982640 459.931476 0.959682 -0.221235 -0.173393
-1.941173 34.764698 459.828044 -0.998779 0.044149 0.022167
9.764003 33.809310 459.842106 0.960539 0.168362 0.221401
9.572237 32.948579 460.010470 0.969167 0.211435 0.126531
-4.357299 31.390310 459.835023 -0.544871 0.486000 -0.683316
-5.041959 30.719586 459.764147 -0.798874 0.240807 -0.551192
3.705850 29.676316 459.978252 -0.721405 -0.563049 -0.403176
10.733435 28.854277 459.805723 0.854497 0.290041 -0.430942
-6.492548 27.145256 459.840137 -0.871077 -0.081052 -0.484412
-7.475385 24.785847 459.940522 -0.899595 0.053343 -0.433456
-8.537619 22.867305 459.883045 -0.901782 -0.021591 -0.431652
16.361144 21.175350 459.924883 0.620251 0.585355 -0.522157
-11.713951 19.163587 459.971876 -0.790296 0.067499 -0.608995
2.966539 17.991990 459.744179 -0.202624 -0.593065 0.779242
1.069470 17.481477 459.888928 0.528689 -0.500129 0.685828
0.163780 16.871417 459.856814 0.534609 -0.336939 0.775026
6.086019 16.142571 459.883398 -0.585982 -0.418974 0.693603
-1.910116 15.627029 459.958065 0.584120 -0.241678 0.774852
8.387446 14.891820 459.756931 -0.537427 -0.192914 0.820948
9.339796 14.136193 459.961073 -0.600126 -0.276434 0.750622
24.248449 13.411429 459.926610 0.585418 0.694008 -0.419093
-6.272979 12.462272 459.785655 0.748854 -0.154861 0.644388
11.711178 11.882748 459.974586 -0.781309 -0.304109 0.545045
25.862904 11.440968 459.910627 0.483417 0.852048 -0.200802
26.564487 10.547452 459.831247 0.276321 0.946931 -0.164223
13.070233 9.800639 459.768718 -0.855322 -0.220204 0.468973
27.022823 8.851202 459.780197 0.444561 0.888095 0.116844
26.653290 8.070071 459.873229 0.539710 0.778617 0.320108
-9.631056 6.999054 459.841648 0.887960 -0.403912 0.219959
26.102731 5.903271 459.816920 0.898277 0.125234 -0.421207
26.431391 4.941834 459.896270 0.943377 0.274603 -0.186099
-22.538311 3.517941 459.867584 -0.962354 0.220948 -0.158296
1.348097 3.084286 459.758411 -0.007573 0.588275 -0.808626
-5.350769 2.732617 460.007616 -0.062863 0.226699 -0.971934
-0.104404 2.970395 459.889212 -0.184373 0.481255 -0.856971
13.763099 2.986995 459.847698 -0.647651 -0.519808 -0.557089
-6.643678 2.496574 459.913811 -0.176153 0.210730 -0.961542
13.178715 2.428309 459.901066 -0.672772 -0.359349 -0.646719
9.744884 2.220649 459.974013 0.144260 0.384127 -0.911940
-21.262456 2.144765 459.835303 0.350129 0.683875 0.640097
22.040449 1.253965 459.802771 0.508875 -0.601095 0.616223
20.216146 -0.441761 459.768089 0.806416 -0.566469 0.169724
-22.792444 -2.346863 459.839306 -0.191277 0.908386 -0.371817
-16.032342 -2.653263 459.813258 -0.624887 -0.436474 -0.647308
-19.194760 -3.164790 459.953729 0.012473 -0.138477 -0.990287
24.513790 -3.907187 459.800127 0.093850 -0.252762 -0.962966
-23.698885 -5.465842 459.766647 -0.906949 0.135285 0.398926
-15.963484 -7.160984 459.844896 0.362458 -0.862445 0.353289
-13.858641 -7.403708 459.881222 -0.087518 -0.915750 0.392100
-22.788244 -8.086609 459.916977 -0.938160 -0.333703 -0.092185
-12.926932 -8.229728 459.950848 -0.270707 -0.950628 0.151740
15.742058 -8.441400 459.858137 -0.034604 -0.836540 0.546813
-9.405292 -8.606239 459.856443 -0.093725 -0.835285 0.541769
17.219563 -8.659727 459.810133 -0.063015 -0.976894 0.204222
13.311177 -8.963457 459.947868 0.384362 -0.465000 0.797522
-7.000516 -9.203060 459.924938 -0.131367 -0.400781 0.906707
18.855916 -9.459503 460.001050 -0.150186 -0.978194 0.143457
19.611037 -9.609373 459.857197 -0.395364 -0.861499 0.318602
-18.126411 -9.964722 459.826945 0.623804 -0.214218 -0.751651
22.067072 -10.148140 459.994212 0.100830 -0.858402 0.502970
-3.497624 -10.215093 459.908129 -0.539031 -0.273312 0.796710
7.577596 -10.503876 459.753856 0.514760 -0.055084 0.855563
-21.310355 -11.379672 459.779209 -0.714572 0.369758 0.593857
-0.228267 -11.837540 459.789954 -0.414066 -0.035649 0.909549
3.940025 -12.239982 459.924933 0.362053 0.033061 0.931571
-12.296540 -12.858087 459.799820 0.140107 -0.977202 -0.159521
-17.136195 -13.926986 459.825175 -0.471114 0.193396 0.860610
-15.681832 -14.499017 459.767080 -0.250103 -0.445154 0.859818
-1.187299 38.314524 460.205080 -0.377625 -0.022116 -0.925695
9.864638 37.981028 460.022180 0.667415 0.269843 -0.694076
-2.598540 36.619035 460.113373 -0.978280 -0.047764 0.201710
-2.111669 35.448459 460.055481 -0.943850 -0.021294 0.329688
-1.913802 34.214979 460.173982 -0.996760 0.075644 -0.027323
9.580090 33.188328 460.133971 0.973436 0.170906 0.152361
9.505986 32.069469 460.052372 0.976273 0.213926 0.033577
4.609721 31.375745 460.154393 -0.707362 -0.456210 -0.539918
-5.472854 29.898147 460.155470 -0.872886 0.144463 -0.466048
2.942041 29.198251 460.223857 -0.177062 -0.677408 -0.713980
-6.309314 27.706918 460.202824 -0.937898 -0.113803 -0.327713
12.595602 25.646216 460.202670 0.853602 0.391157 -0.344034
-8.181816 23.489324 460.130132 -0.864087 0.057757 -0.500018
-9.516854 21.603254 460.229400 -0.866475 -0.021308 -0.498765
-11.157737 19.724107 460.064437 -0.715431 0.022608 -0.698318
19.294524 17.919177 460.169675 0.613196 0.418410 -0.670018
4.054174 17.313272 460.181226 -0.122463 -0.625918 0.770214
-14.973311 16.261450 460.156249 -0.636946 0.247089 -0.730238
-15.488584 15.868509 460.188785 -0.555377 0.229917 -0.799184
-2.476651 15.127566 460.148177 0.658230 -0.144652 0.738789
9.067537 14.303595 460.196349 -0.589414 -0.144904 0.794729
-19.052010 13.402565 460.106615 -0.502569 0.278099 -0.818587
10.596164 12.905255 460.197651 -0.694091 -0.195489 0.692836
-6.738100 11.899746 460.111303 0.750412 -0.135748 0.646881
25.537183 11.135000 460.152787 0.500343 0.855696 -0.132065
-8.143610 10.259757 460.128463 0.897172 -0.202714 0.392415
26.001598 9.591553 460.192385 0.365251 0.929551 -0.050260
-22.359454 8.672197 460.185803 -0.796832 0.571668 -0.195589
25.920704 7.859369 460.267279 0.591968 0.805262 0.033590
25.971267 7.151968 460.076052 0.928930 0.353860 0.108962
-21.853989 5.878753 460.206359 -0.948238 0.315900 -0.032447
14.320573 4.694459 460.126701 -0.882725 -0.407038 -0.234769
26.450188 3.749503 460.140683 0.849933 0.516775 0.102747
13.790908 3.359751 460.154658 -0.733198 -0.426560 -0.529592
-3.275721 2.830436 460.094220 0.026804 0.438309 -0.898425
1.925512 2.831463 460.029053 0.035885 0.817205 -0.575229
-20.352939 2.754097 460.103303 0.192059 0.478028 0.857090
0.866605 2.688924 460.250336 0.133520 0.748208 -0.649891
13.086547 2.518087 460.182051 -0.646666 -0.395363 -0.652312
10.193849 2.160070 460.028385 0.061901 0.447255 -0.892262
23.824885 1.847645 460.120524 0.133161 -0.210363 0.968512
-15.291289 0.236340 460.045362 -0.878505 -0.476610 0.032753
20.398173 -1.227636 460.123131 0.763568 -0.644980 -0.031051
-16.279642 -2.551741 460.199161 -0.514441 -0.521535 -0.680699
-18.723026 -3.151669 460.011583 -0.003326 -0.222394 -0.974951
-23.807518 -4.126032 460.108637 -0.821241 0.569985 0.026073
-23.147593 -6.135530 460.076254 -0.841886 0.147087 0.519224
-14.142312 -7.482538 459.991901 -0.310971 -0.748218 0.586061
-13.688267 -7.979232 460.124585 -0.345639 -0.918493 0.192105
-13.476064 -8.577922 460.195596 -0.349872 -0.925635 0.144186
16.088221 -8.767447 460.042833 -0.171108 -0.894842 0.412285
-9.874735 -9.012085 460.192544 -0.040188 -0.852930 0.520476
15.917732 -8.920844 460.171647 -0.199564 -0.834245 0.514013
-6.168351 -9.458780 460.111128 -0.161480 -0.485397 0.859252
18.788482 -9.470765 460.012976 -0.137108 -0.978242 0.155708
16.867523 -9.558722 460.230114 -0.180839 -0.891574 0.415202
8.371860 -10.120191 460.217828 0.315416 0.001433 0.948952
24.681005 -10.063228 460.209989 0.273532 -0.463262 0.842953
19.115789 -10.401295 460.248005 -0.137735 -0.974528 0.176987
-21.790656 -10.735933 460.216982 -0.635783 -0.691562 -0.342815
21.921679 -10.720291 460.232546 0.160140 -0.933608 0.320516
-1.541349 -11.234185 460.185663 -0.461077 -0.196745 0.865274
-13.428062 -11.970251 460.103315 0.250334 -0.180556 -0.951174
1.091232 -12.386527 460.266579 -0.290232 -0.065575 0.954707
-18.583701 -12.768667 460.126759 -0.646640 -0.006420 0.762768
-12.367391 -14.333477 460.017246 0.165386 -0.956835 0.238985
-14.297922 -14.721724 460.170456 -0.059037 -0.785259 0.616346
0.166487 38.300763 460.352007 0.400252 0.017952 -0.916229
1.192262 37.746580 460.357189 0.606277 -0.037573 -0.794365
10.558893 36.786625 460.324736 0.965606 0.253408 -0.058224
10.234865 35.489975 460.364713 0.974707 -0.066744 0.213285
5.786865 34.137939 460.446835 -0.993218 -0.113103 -0.026929
1.377858 32.881802 460.268354 0.874350 -0.149687 0.461634
4.719976 31.760198 460.487538 -0.720084 -0.313511 -0.619023
-4.233184 31.021501 460.413515 -0.427347 0.674233 -0.602316
1.062413 30.107881 460.428779 0.701284 -0.572729 -0.424478
2.976257 29.378909 460.399401 -0.242363 -0.561328 -0.791310
-6.569535 27.008442 460.308423 -0.915893 0.090531 -0.391080
-7.423819 24.764583 460.376612 -0.899510 0.202979 -0.386886
14.348953 22.778940 460.425004 0.662480 0.560335 -0.497137
15.830986 21.287766 460.457060 0.669789 0.529473 -0.520616
-11.606905 19.267462 460.322495 -0.793955 0.099367 -0.599801
19.087690 17.930814 460.488154 0.605678 0.392556 -0.692137
3.637807 17.261820 460.370462 -0.217817 -0.629566 0.745789
0.354569 16.835543 460.364056 0.462968 -0.366997 0.806829
21.024033 16.126565 460.307532 0.586369 0.443012 -0.678168
22.041478 15.329463 460.407516 0.557364 0.532513 -0.637006
-17.247085 14.362472 460.408838 -0.554945 0.404734 -0.726792
-4.690461 13.738973 460.363782 0.580577 -0.131860 0.803457
10.314581 13.151285 460.330216 -0.722743 -0.093072 0.684822
-6.327232 12.340909 460.428223 0.792422 -0.057175 0.607288
-20.716802 11.315301 460.338129 -0.666579 0.547085 -0.506331
25.338767 10.796371 460.333377 0.524826 0.848275 -0.070627
-8.453716 9.477464 460.351444 0.896057 -0.141896 0.420652
13.416857 8.987062 460.335984 -0.889405 -0.260066 0.375932
-8.951686 7.972675 460.438403 0.923155 -0.152134 0.353043
14.062573 7.071441 460.366693 -0.953995 -0.245766 0.171733
14.312961 5.626469 460.370892 -0.910992 -0.412355 0.007509
-9.504108 4.665571 460.504115 0.852151 -0.511898 -0.108628
-18.457201 3.455867 460.278400 0.043423 0.110230 0.992957
25.981870 3.012322 460.407311 0.592149 0.601736 0.535979
-1.852591 2.765052 460.416047 -0.036559 0.366029 -0.929885
-7.903499 2.465181 460.265858 0.262093 0.030989 -0.964545
-1.194539 2.729653 460.468723 0.082585 0.328927 -0.940737
4.756898 2.581349 460.309448 0.079145 0.470452 -0.878869
7.580955 2.334933 460.403683 0.067378 0.297780 -0.952254
10.933888 2.021321 460.304636 0.045280 0.323039 -0.945302
22.327062 0.934780 460.474340 0.754952 -0.461656 0.465748
-15.495717 -1.087296 460.406080 -0.882655 -0.450003 -0.135712
-17.491623 -2.745931 460.487843 -0.266249 -0.548995 -0.792285
-17.334366 -2.851093 460.263331 -0.215500 -0.495201 -0.841627
24.550004 -3.710009 460.336847 0.200378 -0.276145 -0.939996
-23.583192 -5.353390 460.271181 -0.870398 0.436483 0.227794
-14.597899 -7.550490 460.281058 -0.280888 -0.752239 0.596019
-13.909843 -8.221615 460.294502 -0.418974 -0.870981 0.256620
-13.524184 -8.811164 460.279013 -0.424087 -0.868519 0.256566
14.122841 -9.068097 460.434334 -0.016685 -0.647441 0.761933
-11.620130 -9.378510 460.348745 0.197740 -0.900061 0.388316
12.130092 -9.417785 460.460042 0.073778 -0.514660 0.854214
-11.340684 -9.434368 460.438079 0.202024 -0.871912 0.446044
16.160809 -9.553239 460.438421 -0.373921 -0.844158 0.384162
17.239029 -9.913692 460.332062 -0.217841 -0.906388 0.361948
7.934264 -10.296246 460.324918 0.468102 -0.028718 0.883208
-15.347587 -10.733911 460.294336 0.445370 -0.279615 -0.850565
22.788222 -10.611739 460.305956 0.096109 -0.838644 0.536134
20.046087 -11.025633 460.455344 0.063900 -0.907736 0.414648
19.593555 -11.086268 460.474813 -0.014632 -0.879673 0.475354
-13.484013 -11.898085 460.432627 0.275422 -0.107243 -0.955323
0.441372 -12.121867 460.292350 -0.487553 -0.269133 0.830578
2.664533 -12.506028 460.384979 0.111110 -0.458404 0.881771
-11.511760 -14.272434 460.325957 0.586371 -0.785086 0.199522
-11.995421 -14.830093 460.395803 0.375551 -0.794862 0.476609
6.923423 38.206864 460.559879 -0.468701 0.169174 -0.867006
1.451875 37.539680 460.747735 0.751068 -0.044148 -0.658748
10.514244 36.711428 460.515164 0.986376 0.150581 -0.066233
5.839067 35.495536 460.685967 -0.993033 -0.020954 -0.115958
1.901549 34.111352 460.642182 0.953748 0.010050 0.300440
9.529913 33.183490 460.537784 0.986798 0.004333 0.161896
1.071167 31.864007 460.666154 0.989437 -0.018308 0.143801
-3.894406 30.917557 460.703610 -0.415976 0.719857 -0.555671
-5.276519 29.975149 460.549029 -0.675819 0.537875 -0.503944
2.871328 29.456871 460.511048 -0.122944 -0.708267 -0.695157
-6.571996 26.895901 460.690310 -0.918978 0.191250 -0.344823
12.714306 25.110973 460.598466 0.809715 0.403572 -0.426019
-8.474475 22.952470 460.527176 -0.876245 0.093102 -0.472785
15.857284 21.053492 460.658840 0.657951 0.566736 -0.495894
-11.612813 19.225338 460.672723 -0.768930 0.102394 -0.631080
19.390392 17.599950 460.627630 0.623120 0.436684 -0.648867
4.162245 16.995171 460.717081 -0.164567 -0.615764 0.770554
-15.212431 15.964253 460.626887 -0.608761 0.224182 -0.761020
-15.959571 15.387064 460.578735 -0.666109 0.296586 -0.684351
-16.681184 14.682539 460.721810 -0.654993 0.293871 -0.696150
-4.120895 14.113835 460.575734 0.563147 -0.163605 0.809999
10.055675 13.403571 460.586994 -0.738527 -0.053612 0.672089
-6.137989 12.555181 460.781375 0.770641 -0.048471 0.635423
-20.194098 11.686538 460.656892 -0.799617 0.387151 -0.459050
24.654209 10.788178 460.645067 0.301440 0.940064 -0.159417
-8.080043 10.030666 460.707792 0.898324 -0.290014 0.330010
-21.811942 9.031029 460.673534 -0.752817 0.571952 -0.325788
-8.897132 8.073701 460.523749 0.925700 -0.087458 0.368009
25.744592 7.213441 460.554628 0.877196 0.467114 -0.111042
-9.417802 5.835625 460.667441 0.737943 -0.667564 -0.098987
26.238104 4.705500 460.522829 0.914119 0.398089 -0.076888
-21.809277 3.382882 460.742453 -0.493425 0.730250 0.472512
-19.658361 3.323637 460.569058 0.169854 0.246727 0.954084
13.305233 3.015883 460.603009 -0.746272 -0.317690 -0.584937
-4.461622 2.607185 460.559601 -0.100915 0.359247 -0.927770
0.954754 2.386149 460.614455 0.378312 0.507344 -0.774262
1.403488 2.238610 460.578766 0.189389 0.412322 -0.891135
8.805876 2.159293 460.670142 0.190347 0.417870 -0.888343
11.950013 2.031465 460.512593 -0.213425 -0.009026 -0.976918
22.264914 0.669493 460.743889 0.734477 -0.390610 0.554948
21.201874 -0.960526 460.776534 0.599304 -0.755005 0.266088
-22.609265 -3.048656 460.519784 -0.453126 0.573169 -0.682754
23.523800 -3.423151 460.540022 0.195554 -0.389355 -0.900090
27.065055 -4.798626 460.665685 0.761750 0.080446 -0.642857
-22.941156 -7.561898 460.695475 -0.999242 -0.023252 -0.031228
-22.667432 -8.376113 460.695191 -0.747838 0.314389 0.584720
-16.120541 -8.536997 460.695837 0.231200 -0.876140 0.422995
-13.897564 -9.192707 460.633148 -0.430018 -0.856751 0.284715
13.419145 -9.211315 460.587333 0.117827 -0.523582 0.843788
-11.727620 -9.678325 460.508918 0.156059 -0.853495 0.497184
-5.814336 -9.764095 460.684184 0.044969 -0.496821 0.866687
-17.767182 -9.946011 460.522004 0.445824 -0.440152 -0.779427
16.488717 -9.925741 460.526273 -0.230222 -0.889484 0.394735
17.048930 -10.250225 460.559482 -0.246765 -0.861226 0.444293
7.416132 -10.565628 460.527383 0.537557 -0.019136 0.843010
6.815298 -10.977981 460.618573 0.657396 -0.047452 0.752050
18.721855 -11.214741 460.661663 -0.173743 -0.853760 0.490823
-13.877604 -11.466082 460.607790 0.773709 -0.307928 -0.553673
-13.598415 -11.802077 460.577660 0.633311 -0.090033 -0.768642
-11.482039 -12.339428 460.691643 0.584349 -0.377262 -0.718477
1.795595 -12.480333 460.608258 -0.371511 -0.449390 0.812422
-17.505407 -13.728530 460.561426 -0.537484 -0.445849 0.715772
-15.431310 -14.788858 460.543714 -0.257343 -0.108000 0.960266
-1.521227 38.200342 460.825399 -0.463825 0.048577 -0.884594
0.613887 38.123364 460.814717 0.414113 -0.037404 -0.909457
-2.640852 36.897382 460.883639 -0.986529 -0.057077 -0.153307
10.473981 36.186051 460.907320 0.996675 0.012026 0.080592
10.115785 34.917578 460.825272 0.913995 -0.182569 0.362327
5.473125 33.425975 461.021315 -0.905941 -0.234716 -0.352391
1.192529 32.291968 460.935179 0.951187 -0.118562 0.284930
-2.901274 31.333872 460.886159 -0.637220 0.522110 -0.566879
9.447858 30.703262 460.834807 0.977892 0.155328 -0.140000
-5.123283 29.648879 460.986397 -0.546424 0.700333 -0.459299
10.841974 27.991584 460.902875 0.882836 0.261831 -0.389929
11.935668 25.843837 460.966585 0.696059 0.537182 -0.476380
-7.741395 23.871318 460.973373 -0.856154 0.239031 -0.458110
-9.214051 22.000102 460.970772 -0.832199 0.114422 -0.542542
-10.550658 20.290532 460.980926 -0.734771 0.153343 -0.660755
-11.885966 18.884224 460.763319 -0.758879 0.070976 -0.647353
2.380112 17.268391 460.884804 0.090118 -0.383650 0.919071
19.859385 17.062513 460.730599 0.645103 0.504014 -0.574293
20.491792 16.300807 460.820494 0.674314 0.475519 -0.564962
-15.968785 15.319024 460.743559 -0.665982 0.324767 -0.671561
-16.314625 14.934667 460.921599 -0.659904 0.303451 -0.687346
-3.876894 14.203686 460.840993 0.542430 -0.129913 0.829995
23.139462 13.640357 460.941380 0.634231 0.522332 -0.570017
-6.217100 12.461601 460.861554 0.772713 -0.056858 0.632204
-20.212898 11.575453 460.766422 -0.800929 0.395032 -0.449958
24.232921 10.999105 460.757540 0.515427 0.842310 -0.157635
12.904620 9.844512 460.967378 -0.887990 -0.132073 0.440489
24.802128 8.905659 460.959285 0.767650 0.583583 -0.264847
-21.828210 7.685644 460.992260 -0.673176 0.736510 0.066237
13.986470 6.868891 460.869744 -0.981379 -0.176908 0.074827
-9.284627 5.585979 460.817438 0.869267 -0.493266 -0.032624
-22.095519 4.332885 460.799643 -0.873067 0.487037 0.023431
-19.415204 3.413312 460.718047 0.186323 0.194166 0.963111
-17.330405 3.103467 460.892541 -0.477518 -0.190982 0.857615
-6.468694 2.424371 460.789864 -0.108920 0.158162 -0.981387
-1.062910 2.591726 460.835460 0.099830 0.374969 -0.921646
0.659590 2.377478 460.852772 0.168535 0.376784 -0.910840
6.259205 2.239391 460.771155 0.067716 0.435741 -0.897521
10.096899 1.921044 460.938475 0.116882 0.333980 -0.935305
-15.991706 0.794694 460.983951 -0.791274 -0.499947 0.352050
21.519679 -0.802955 460.976035 0.646106 -0.702417 0.298593
-19.630081 -2.665702 461.013011 0.011761 -0.477164 -0.878735
22.888539 -4.097210 459.060866 0.091277 -0.311642 -0.945805
24.060406 -3.413497 460.789400 0.148607 -0.438142 -0.886537
26.712155 -4.508884 460.754821 0.644380 0.025922 -0.764266
-22.906808 -6.761917 460.821946 -0.998036 -0.040587 -0.047721
-22.421712 -8.842223 460.789626 -0.977663 -0.032303 0.207680
-17.009211 -9.109203 460.974583 0.009092 -0.919503 0.392978
-14.889236 -9.240097 460.983339 -0.246917 -0.946561 0.207495
-22.726795 -9.657735 460.970975 -0.567258 -0.813021 0.131208
-7.708061 -9.772052 460.943593 0.060922 -0.602930 0.795464
12.277084 -9.515844 460.976746 0.047909 -0.229459 0.972138
-12.662850 -10.129687 460.806757 -0.128836 -0.882993 0.451360
-4.692066 -9.915220 460.897024 -0.239566 -0.488012 0.839316
-13.526830 -10.200857 460.967854 -0.112142 -0.958246 0.263037
24.761030 -10.394840 460.769772 0.333298 -0.704354 0.626735
16.436721 -10.621597 460.916274 -0.267641 -0.869879 0.414341
16.879003 -10.888964 460.941904 -0.238522 -0.885681 0.398343
17.867977 -11.346555 460.973809 -0.300593 -0.870482 0.389750
18.769185 -11.586169 460.904453 -0.169658 -0.846684 0.504324
-13.561740 -11.773999 460.807012 0.654471 -0.236666 -0.718093
21.391773 -11.995409 460.947606 -0.193774 -0.858048 0.475610
21.478433 -12.062256 460.968499 -0.260919 -0.885283 0.384962
-19.673461 -12.841146 460.896906 -0.165533 -0.790248 0.590006
-10.735271 -13.692481 460.764403 0.674057 -0.637214 -0.373639
-10.766873 -14.847520 460.898424 0.231764 -0.872662 0.429821
-11.740612 -15.263431 460.870208 0.457947 -0.616539 0.640441
-1.624771 38.140661 461.033146 -0.548134 0.055575 -0.834542
6.001656 37.365719 461.015040 -0.964527 0.022572 -0.263017
2.373263 36.055722 461.219615 0.990180 -0.075063 -0.117938
-1.888851 34.749428 461.033403 -0.946423 0.120888 0.299447
9.757024 33.681619 461.194565 0.915885 -0.303310 0.262979
5.036421 32.588084 461.107041 -0.833886 -0.253834 -0.490105
-2.970216 31.142077 461.041787 -0.527628 0.581164 -0.619562
9.429909 30.576848 461.090561 0.979443 0.144009 -0.141256
-5.017982 29.478634 461.208001 -0.580119 0.679030 -0.449866
-6.298426 27.581165 461.053351 -0.937457 0.268966 -0.220979
-6.968393 25.407587 461.166604 -0.877579 0.328153 -0.349529
-7.947283 23.496370 461.170532 -0.786047 0.243570 -0.568158
14.508064 21.886012 461.096052 0.562011 0.619397 -0.548171
16.243426 20.094017 461.155097 0.622809 0.601069 -0.500824
-12.714243 18.148668 461.120947 -0.587823 0.189396 -0.786507
2.798744 17.205344 461.019187 -0.088186 -0.332667 0.938912
-14.449810 16.583926 461.218357 -0.724500 0.130919 -0.676728
-1.178381 15.738698 461.112418 0.552105 -0.106189 0.826985
-2.425980 15.086920 461.054063 0.573238 -0.110535 0.811899
8.829873 14.432937 461.211689 -0.629484 0.018650 0.776789
-18.271319 13.499315 460.990204 -0.491114 0.347614 -0.798732
10.428936 12.990323 461.049154 -0.762972 -0.095824 0.639290
11.293948 12.016344 461.245280 -0.737348 -0.110127 0.666476
-7.332414 11.076392 461.167528 0.748537 -0.291713 0.595479
12.818702 9.966296 461.140060 -0.864655 -0.131769 0.484777
24.693387 8.869982 461.150326 0.842503 0.466198 -0.269905
-21.784893 7.735077 461.031585 -0.686245 0.723128 0.078447
13.940947 6.891793 461.126420 -0.986336 -0.143668 0.080623
-9.111485 5.482562 461.127593 0.916589 -0.399678 0.011065
25.975258 4.394886 461.042420 0.899486 0.430785 0.073138
-19.748696 3.577102 461.213524 0.153874 0.437823 0.885795
25.504327 3.219125 461.188552 0.780977 0.298953 0.548363
-4.218006 2.482301 461.016544 -0.205715 0.400833 -0.892756
-6.852371 2.400518 461.106660 0.072783 0.106412 -0.991655
2.693852 2.213319 461.182472 -0.164594 0.368474 -0.914951
12.447018 2.322103 461.135056 -0.588488 -0.063611 -0.806000
10.532067 1.833089 461.113989 0.105516 0.286133 -0.952362
-16.076518 0.783159 461.118276 -0.776246 -0.520146 0.356217
22.893150 -2.162262 461.538505 0.312547 -0.819709 -0.479991
21.445697 -2.686907 460.605255 0.375783 -0.664537 -0.645893
22.009606 -4.218031 458.658333 0.022059 -0.491478 -0.870611
-22.445603 -3.546968 461.235341 -0.683966 0.516693 -0.514995
-22.895545 -4.684134 461.170292 -0.730674 0.681757 -0.036379
-22.890922 -6.444940 460.969964 -0.972274 0.233274 0.016299
-22.475697 -8.665343 461.078032 -0.960537 -0.271399 0.060922
-16.035755 -9.285801 461.095542 0.073278 -0.892365 0.445326
-15.689595 -9.710031 461.258448 -0.355626 -0.889946 0.285527
13.271244 -9.530118 461.116420 -0.002925 -0.560673 0.828032
-14.305020 -10.155333 461.064441 -0.250960 -0.957179 0.144318
-6.057752 -10.043292 461.206623 0.101094 -0.557732 0.823842
-16.363559 -10.306711 461.047317 0.324485 -0.022615 -0.945620
-4.365064 -10.226489 461.206557 -0.399543 -0.447110 0.800286
-13.282979 -10.552116 461.085255 0.226159 -0.936683 0.267350
25.045399 -10.485521 461.098028 0.641016 -0.551942 0.533346
24.372886 -11.066904 461.195150 0.390165 -0.695530 0.603332
-21.687522 -11.481579 461.239141 -0.677003 -0.507433 0.533084
23.870246 -11.411562 461.224454 0.408911 -0.721033 0.559378
18.875588 -11.863477 461.097922 -0.162933 -0.780626 0.603387
3.752805 -12.380576 460.996955 0.185658 -0.260185 0.947542
2.092796 -12.672475 461.246149 -0.061666 -0.139806 0.988257
-19.397775 -13.138867 461.059607 -0.289808 -0.739791 0.607224
-17.188761 -14.107973 461.119192 -0.365374 -0.530773 0.764710
-13.972204 -15.221835 461.011166 -0.279531 -0.387266 0.878571
-0.891963 38.400019 461.256593 -0.092613 0.151786 -0.984065
6.800682 38.002788 461.326967 -0.417068 0.285747 -0.862788
5.920868 36.994771 461.492904 -0.990285 0.012028 -0.138533
2.390721 35.651221 461.278715 0.999593 -0.022821 0.017103
2.110908 34.529027 461.433655 0.931006 -0.153936 0.330955
9.760694 33.588911 461.304593 0.938645 -0.248353 0.239305
4.432515 32.088065 461.498491 -0.600416 -0.379706 -0.703792
9.307082 31.276217 461.234059 0.996935 0.012157 -0.077286
3.193162 30.290746 461.244576 -0.599954 -0.449929 -0.661528
-5.284688 28.927764 461.494329 -0.513203 0.661532 -0.546807
-6.314212 26.919877 461.401252 -0.910097 0.370937 -0.184742
12.073294 24.995419 461.480819 0.710554 0.652927 -0.262298
-8.079528 23.235481 461.472886 -0.776016 0.216408 -0.592425
14.653368 21.596487 461.285218 0.546342 0.597232 -0.587217
16.139070 20.051551 461.316311 0.654827 0.557571 -0.510212
17.909510 18.379212 461.232817 0.641880 0.422643 -0.639814
2.641254 17.091725 461.479126 -0.332596 -0.544828 0.769768
-14.476573 16.522708 461.382162 -0.715343 0.208311 -0.667001
-0.601240 15.975001 461.332704 0.503465 -0.182066 0.844615
7.841363 15.063460 461.464728 -0.451829 -0.114712 0.884699
22.010266 14.390046 461.473841 0.700364 0.441521 -0.560847
-18.046765 13.534569 461.289375 -0.581271 0.311411 -0.751763
23.359555 12.752958 461.384584 0.755263 0.616292 -0.223073
11.568126 11.754021 461.219788 -0.712514 -0.123966 0.690620
12.166910 10.874386 461.445147 -0.849032 -0.174253 0.498779
12.791019 9.955475 461.344372 -0.864123 -0.203341 0.460373
24.608089 8.931257 461.258042 0.810188 0.527112 -0.256415
-21.252502 7.938008 461.519872 -0.762194 0.632984 -0.135617
25.446388 6.837117 461.269464 0.929697 0.328969 -0.165662
-9.035963 5.253894 461.361235 0.944140 -0.323844 0.061033
25.858144 4.633241 461.294962 0.906306 0.414268 0.083612
-19.772917 3.596446 461.258142 0.175274 0.324699 0.929435
-17.265885 2.927463 461.252483 -0.546390 -0.602207 0.582069
-1.400737 2.485726 461.307187 0.096307 0.351509 -0.931218
-0.563520 2.333802 461.368739 0.285868 0.301652 -0.909552
4.746726 2.109560 461.255337 0.120203 0.500162 -0.857549
8.421764 1.948390 461.381909 0.098141 0.466759 -0.878923
24.525586 1.820256 461.244855 0.643213 -0.286773 0.709956
22.153187 0.107989 461.330971 0.740356 -0.584356 0.332266
-17.491028 -2.012688 461.427632 -0.260822 -0.570515 -0.778772
-19.444373 -2.514047 461.303662 -0.000031 -0.313667 -0.949533
22.412280 -4.971481 457.511014 -0.627025 -0.691015 -0.359635
-22.570116 -3.823475 461.357640 -0.851911 0.364264 -0.376242
27.040343 -5.091033 461.477672 0.970305 0.072089 -0.230893
26.847288 -7.840156 461.340326 0.912843 -0.025524 0.407512
-16.330589 -9.744994 461.340437 -0.001020 -0.936678 0.350191
25.876837 -9.578986 461.266768 0.801414 -0.112972 0.587343
-6.336746 -10.128857 461.385286 -0.091224 -0.541611 0.835665
-16.262788 -10.280115 461.273767 0.100534 -0.717272 -0.689503
-5.042608 -10.196992 461.386579 -0.028298 -0.577290 0.816048
-3.879781 -10.539174 461.337321 -0.475576 -0.377024 0.794783
-11.047199 -10.841205 461.496354 0.267161 -0.827094 0.494510
-1.664742 -11.426441 461.349831 -0.421744 -0.268088 0.866176
6.097844 -11.452281 461.295122 0.520409 -0.047488 0.852596
-11.796009 -11.817766 461.383405 0.002092 -0.508419 -0.861107
19.520612 -11.992383 461.318385 0.149184 -0.193536 0.969684
18.454838 -12.254757 461.463883 0.037830 -0.846727 0.530681
3.001568 -12.653784 461.481120 0.138533 -0.340912 0.929832
20.681036 -12.765850 461.415721 -0.158748 -0.981057 0.111023
-18.914162 -13.846847 461.402843 -0.358942 -0.713712 0.601478
-9.770773 -14.649069 461.401670 0.680848 -0.721986 0.123215
-13.847525 -15.462339 461.336797 -0.112439 -0.768717 0.629628
-1.040829 38.310896 461.716724 -0.315405 0.237704 -0.918704
7.350430 38.104758 461.715323 -0.311603 0.326668 -0.892296
1.989078 37.047575 461.488487 0.793409 0.017556 -0.608436
-2.284332 35.609695 461.515669 -0.914161 -0.080245 0.397329
-1.770664 34.613837 461.509871 -0.945182 0.107353 0.308393
9.829651 33.473984 461.719924 0.970620 -0.167953 0.172304
1.317265 32.058932 461.672792 0.915343 -0.322749 0.240791
3.455393 31.077867 461.665827 -0.842632 -0.310759 -0.439773
2.805694 30.256277 461.659543 -0.448733 -0.454404 -0.769516
9.746259 29.094175 461.550928 0.819496 0.443772 -0.362619
10.911477 27.178185 461.594866 0.816188 0.495338 -0.297451
-7.141151 24.627015 461.716109 -0.868802 0.358380 -0.341683
12.912775 23.320184 461.576086 0.683532 0.595477 -0.422126
-9.692516 21.147124 461.763009 -0.847756 0.127441 -0.514849
-10.987928 19.658848 461.758597 -0.733222 0.154581 -0.662186
-12.815595 17.959536 461.554691 -0.628543 0.319664 -0.709047
19.287421 16.934636 461.582894 0.622494 0.574619 -0.531333
-0.020998 16.300139 461.632968 0.483459 -0.195291 0.853305
-1.010238 15.839569 461.603013 0.545461 -0.054423 0.836367
-2.553768 14.999720 461.504745 0.533791 -0.013478 0.845509
-3.322966 14.573308 461.757692 0.571265 -0.020983 0.820498
22.343187 13.827993 461.696816 0.687853 0.491747 -0.533894
-18.744308 12.997414 461.663080 -0.592433 0.294563 -0.749837
-19.568185 11.953912 461.710059 -0.813118 0.350660 -0.464626
12.019003 11.040107 461.752886 -0.858793 -0.127561 0.496189
-20.759032 9.727633 461.497003 -0.854974 0.464903 -0.229964
13.151125 8.830659 461.721962 -0.912605 -0.223743 0.342185
-21.321724 7.299496 461.619467 -0.784527 0.597638 -0.165367
25.434889 6.457291 461.574653 0.939214 0.278618 -0.200620
13.756605 5.000822 461.580833 -0.913696 -0.300060 -0.274087
25.693939 4.262910 461.582899 0.939864 0.334441 0.069321
25.615487 3.669060 461.546588 0.869017 0.280456 0.407621
-7.461708 2.551120 461.628020 0.399677 -0.110756 -0.909940
-5.588400 2.357182 461.573050 0.067673 0.212271 -0.974865
1.040489 2.151343 461.717957 0.162812 0.219855 -0.961850
4.223575 2.001383 461.703377 0.162041 0.424333 -0.890890
11.393023 1.799421 461.600783 -0.400312 0.143141 -0.905130
24.173755 1.399561 461.548444 0.497734 -0.481801 0.721200
22.165611 -0.354335 461.521350 0.618100 -0.773444 0.140487
21.920458 -0.678977 461.386273 0.617305 -0.784497 0.059142
23.280978 -1.830276 461.828811 0.340288 -0.838470 -0.425643
-21.652221 -2.804602 461.731713 -0.394888 -0.436438 -0.808446
22.608795 -1.139162 461.768468 0.397921 -0.903770 -0.157665
26.998493 -4.998802 461.649734 0.941964 0.090723 -0.323224
-22.743568 -7.724001 461.571782 -0.967266 0.028119 0.252201
11.285599 -9.801289 461.596923 0.065762 -0.239503 0.968666
13.318289 -9.912109 461.696332 -0.245494 -0.665325 0.705036
-6.452386 -10.353598 461.734300 -0.035161 -0.595668 0.802461
-10.592110 -10.739656 461.581504 0.326144 -0.765708 0.554366
-22.272352 -10.960170 461.668942 -0.714595 -0.531369 0.454973
24.708204 -11.096193 461.509380 0.562220 -0.372001 0.738596
6.497912 -11.247699 461.602251 0.526600 -0.240426 0.815406
-10.979829 -11.583214 461.725948 0.450263 -0.868838 -0.205875
-11.021504 -11.927972 461.569872 0.536084 -0.712166 -0.453249
23.835140 -11.777189 461.594585 0.559516 -0.500349 0.660752
18.224119 -12.421458 461.559195 -0.253080 -0.908499 0.332536
1.949205 -12.692299 461.711752 -0.056874 -0.155335 0.986223
19.828023 -12.637912 461.717640 -0.024872 -0.599710 -0.799831
21.160901 -13.049862 461.544312 0.088630 -0.691764 0.716664
20.911289 -13.176592 461.656042 0.165315 -0.702708 0.692006
-16.912710 -14.353086 461.576029 -0.136318 -0.201240 0.970010
-10.222284 -15.536490 461.713101 0.125603 -0.705985 0.697000
-1.301276 38.159711 461.953951 -0.337058 0.243094 -0.909559
8.233615 38.083277 462.036293 0.119897 0.484414 -0.866584
-2.695095 36.912089 461.766206 -0.983157 0.046232 -0.176820
5.775721 36.019149 461.826825 -0.972654 -0.080601 -0.217824
5.514277 34.912849 461.974992 -0.975625 -0.183194 -0.120813
5.201953 33.377865 461.746496 -0.902596 -0.294142 -0.314327
-1.848109 32.245711 461.866303 -0.930987 0.278121 -0.236457
3.407037 31.084603 461.811448 -0.846548 -0.228664 -0.480697
2.043679 30.322330 461.873945 0.481520 -0.280023 -0.830497
9.589277 29.126533 461.804725 0.829233 0.467919 -0.305655
10.611287 27.495969 461.789826 0.737260 0.582156 -0.342844
11.654416 25.205595 461.756581 0.638054 0.681197 -0.358967
12.343597 23.611781 461.972054 0.653347 0.639778 -0.404750
-9.516233 21.415356 461.799874 -0.816237 0.167333 -0.552952
-10.888775 19.759712 461.833351 -0.767242 0.141680 -0.625513
17.820961 17.883551 461.975569 0.597890 0.640725 -0.481663
0.849998 16.635664 461.869430 0.299353 -0.232316 0.925428
0.202165 16.378332 461.791066 0.415883 -0.179330 0.891562
-1.092162 15.796482 461.975390 0.539118 -0.056208 0.840352
-2.171777 15.201769 461.884394 0.505985 -0.087170 0.858127
21.532911 14.532658 461.934713 0.581090 0.481747 -0.655937
-17.731231 13.535309 461.976946 -0.524814 0.331662 -0.783946
22.781869 13.043863 461.904368 0.727422 0.605411 -0.323009
-19.756811 11.481763 461.907238 -0.848449 0.363174 -0.385018
-7.434135 10.720701 461.888112 0.798061 -0.200312 0.568308
24.049177 9.643491 461.773963 0.844740 0.412647 -0.340789
-20.895755 8.208943 461.968343 -0.856653 0.506964 -0.095570
13.704202 7.334956 461.821628 -0.925320 -0.283411 0.251916
-8.791847 6.258064 461.800196 0.953206 -0.295097 0.065692
25.608611 5.011399 461.833868 0.884887 0.464346 0.036857
-20.493428 3.884043 461.739236 -0.222149 0.353203 0.908789
-8.354454 3.245206 461.741108 0.746660 -0.230186 -0.624110
12.533073 2.621171 461.969743 -0.780836 -0.145304 -0.607603
-2.699874 2.350782 461.924493 -0.068422 0.298578 -0.951929
24.971052 2.351702 461.979656 0.950640 -0.006945 0.310220
6.900410 1.782042 461.868638 0.068651 0.378404 -0.923091
9.546746 1.686076 461.976319 0.000158 0.331362 -0.943504
-16.428643 0.438573 461.771474 -0.724686 -0.662255 0.190388
-22.976203 -0.735028 461.902989 -0.469992 -0.843143 -0.261186
-21.293214 -0.945327 461.937771 -0.073930 -0.854730 -0.513782
-21.582667 -1.230541 461.859119 -0.121385 -0.927634 -0.353215
-22.509222 -1.686180 461.796029 0.005514 -0.961107 -0.276120
21.920682 -3.944458 459.128560 0.160759 -0.449563 -0.878664
-18.757688 -1.965273 461.956844 -0.321259 -0.586396 -0.743594
-22.130041 -2.140633 461.906473 0.065711 -0.993140 0.096724
21.161087 -2.139563 460.781116 0.471305 -0.796608 -0.378533
-21.974854 -2.972318 461.738988 -0.512734 -0.633950 -0.578974
25.910176 -3.844040 461.778960 0.524845 -0.391999 -0.755562
27.153121 -5.796657 461.774858 0.990983 0.133630 -0.009833
26.585909 -8.334526 461.893137 0.900700 -0.012151 0.434272
9.947477 -9.921543 461.786634 0.140478 -0.479231 0.866374
-7.590964 -10.387591 461.765514 0.167153 -0.844070 0.509515
-10.130649 -10.758197 461.754632 0.191765 -0.792018 0.579597
7.434478 -10.726899 461.755456 0.450353 -0.365299 0.814702
-3.011180 -11.006026 461.774392 -0.383231 -0.324852 0.864642
14.693888 -11.099627 462.020107 -0.512173 -0.806763 0.294640
15.471901 -11.611000 461.842038 -0.340784 -0.868055 0.361036
16.428362 -12.076238 461.774351 -0.274643 -0.806206 0.524026
16.552886 -12.255947 461.859530 -0.300935 -0.816306 0.493034
3.424210 -12.701600 461.953678 0.086244 -0.241502 0.966560
-19.910206 -12.923450 461.968797 -0.711287 -0.017111 0.702693
18.901995 -13.316936 461.813232 -0.074112 -0.624908 0.777173
20.810508 -13.362555 461.869463 0.101436 -0.573610 0.812824
-18.068017 -14.670145 461.924270 -0.506818 -0.637753 0.580006
-14.793496 -15.784770 461.872621 -0.416864 -0.686613 0.595640
-12.368857 -15.960506 461.894529 0.018044 -0.603704 0.797005
7.834930 38.080264 462.049605 -0.059392 0.489196 -0.870149
-2.637204 37.036729 462.102500 -0.942620 0.229569 -0.242418
10.195840 36.121690 462.163861 0.864193 0.482134 -0.143937
2.308034 34.821641 462.164591 0.952330 -0.079234 0.294602
9.916770 33.791494 462.244949 0.983082 0.066933 0.170501
4.434142 32.407676 462.109363 -0.669203 -0.333097 -0.664240
9.416566 31.667360 462.040922 0.949443 -0.169093 0.264512
2.885600 30.627001 462.095779 -0.603226 -0.423053 -0.676125
9.360776 29.111642 462.184966 0.835084 0.519146 -0.181994
-5.509004 27.533141 462.230833 -0.583326 0.771986 -0.252524
11.232746 25.712629 462.040080 0.828728 0.544268 -0.130316
12.023206 23.929164 462.141971 0.656002 0.653695 -0.377286
13.139170 22.232820 462.252372 0.635315 0.599278 -0.487074
-10.259699 20.296589 462.241321 -0.737048 0.298526 -0.606335
-11.915441 18.630548 462.081888 -0.708051 0.362862 -0.605802
-13.629152 16.915542 462.226178 -0.653583 0.301958 -0.694010
18.910909 16.851213 462.069049 0.569024 0.554033 -0.607667
19.813224 16.065988 461.998795 0.602762 0.540171 -0.587276
20.431959 15.362257 462.135984 0.629528 0.541945 -0.556768
-16.516947 14.334296 462.034794 -0.538867 0.428669 -0.725166
-16.997203 13.976731 462.102819 -0.551696 0.363859 -0.750492
10.344567 13.149128 462.026224 -0.810222 0.013430 0.585969
10.918936 12.392118 462.107351 -0.791232 -0.048588 0.609583
11.938197 11.095314 462.170407 -0.856341 -0.118139 0.502716
-20.349710 10.046199 462.018470 -0.858193 0.432698 -0.276184
-20.641177 8.915078 462.165943 -0.872446 0.471472 -0.128653
24.566717 8.137097 462.122804 0.848027 0.287326 -0.445303
13.715646 6.952601 462.150578 -0.909513 -0.328985 0.254076
25.464104 5.707166 461.985135 0.830736 0.542325 -0.125542
-20.838083 4.449140 462.095184 -0.688288 0.600480 0.407042
-19.370869 3.543002 462.121033 -0.432292 -0.180750 0.883432
12.777424 2.961835 462.145866 -0.807542 0.022149 -0.589394
-5.075044 2.180394 462.121467 0.186666 0.357211 -0.915181
1.939185 2.086819 462.005296 -0.031726 0.160335 -0.986553
3.128869 1.975425 462.113924 0.108830 0.384707 -0.916601
6.079359 1.763884 462.053269 0.059748 0.160530 -0.985221
11.045046 1.699294 462.085942 -0.132514 0.126083 -0.983129
-16.727890 0.286366 462.046116 -0.573393 -0.816281 0.070040
-21.933490 -0.469779 462.178702 0.392852 -0.577047 -0.716020
-21.288624 -0.709636 462.045690 -0.094801 -0.917161 -0.387076
21.303315 -2.834366 460.380958 0.443713 -0.583919 -0.679822
-18.437870 -1.686397 462.052996 -0.366378 -0.681226 -0.633797
-19.533965 -2.141784 462.044497 -0.065290 -0.429672 -0.900622
25.017846 -2.632438 462.238729 0.447377 -0.478373 -0.755654
-22.539173 -3.363687 462.029936 -0.655245 -0.722787 -0.219619
27.022668 -5.053998 462.188267 0.924391 -0.015528 -0.381129
-22.758920 -7.685490 462.124765 -0.982445 -0.092636 0.161928
-22.889081 -9.882108 462.203846 -0.703570 0.700961 0.116798
8.452721 -10.413204 461.985335 0.391106 -0.504932 0.769467
-6.053229 -10.599079 462.106618 0.012275 -0.773668 0.633473
-9.089778 -11.060324 462.118576 0.049243 -0.783663 0.619231
14.117312 -10.950783 462.224837 -0.332831 -0.884000 0.328279
14.651378 -11.223747 462.090100 -0.487742 -0.839089 0.240909
20.411253 -11.733730 462.193246 -0.552712 -0.819008 0.154063
23.804283 -12.061587 461.969028 0.570468 -0.529442 0.627900
20.298088 -12.329161 462.088905 -0.777662 -0.406838 -0.479297
16.228364 -12.495123 462.133103 -0.350943 -0.864872 0.358936
3.280504 -12.734294 462.178472 0.026519 -0.132547 0.990822
21.666791 -13.288831 462.029877 0.111245 -0.508099 0.854084
20.321055 -13.552145 462.179646 -0.006572 -0.497212 0.867604
-17.059431 -14.401785 462.073120 -0.371520 -0.131102 0.919122
-14.936250 -15.880079 462.136132 -0.099709 -0.142247 0.984796
-11.729617 -16.098797 462.196485 0.029681 -0.516124 0.855999
7.279789 37.859843 462.348582 -0.237587 0.379078 -0.894345
6.027977 37.150026 462.437729 -0.791777 0.184545 -0.582265
9.927458 36.302848 462.464842 0.743658 0.583683 -0.326017
2.361638 35.002900 462.308576 0.991510 -0.016237 0.129011
2.095815 33.932064 462.319098 0.969556 -0.189475 0.155114
-1.664981 32.360287 462.418281 -0.953854 0.212884 -0.211760
3.428149 31.426562 462.493852 -0.826865 -0.217921 -0.518464
2.687623 30.659250 462.355452 -0.542794 -0.434335 -0.718838
-4.608942 28.611354 462.438034 -0.677709 0.577347 -0.455391
-5.669362 27.114715 462.251503 -0.641734 0.750870 -0.156118
-6.281423 25.462986 462.309306 -0.799873 0.551869 -0.235889
-7.468551 23.487846 462.258767 -0.687998 0.506469 -0.519758
13.410078 21.749751 462.532708 0.604758 0.465202 -0.646416
-10.295235 20.206111 462.361215 -0.742450 0.296114 -0.600903
-11.939057 18.504757 462.281135 -0.721282 0.313485 -0.617295
18.229407 17.306636 462.248144 0.505227 0.610349 -0.610098
4.334328 16.636135 462.284644 -0.274664 -0.185148 0.943547
5.688929 16.200507 462.391389 -0.322270 -0.171453 0.930992
-1.635283 15.472518 462.377617 0.542678 -0.160913 0.824383
8.234931 14.846008 462.300982 -0.517032 -0.080097 0.852210
21.555991 14.232781 462.334505 0.565169 0.477995 -0.672388
-17.895155 13.286009 462.361099 -0.492228 0.378462 -0.783887
22.544789 12.605776 462.456231 0.779724 0.536794 -0.322309
-6.988589 11.244015 462.444827 0.841854 -0.115137 0.527280
23.457700 10.372409 462.289347 0.756858 0.301379 -0.579946
-20.505055 9.039937 462.382047 -0.877851 0.469912 -0.092525
24.470567 8.184092 462.376313 0.857353 0.193780 -0.476860
-8.637898 6.727498 462.433292 0.995679 -0.092822 0.002875
13.740882 5.738049 462.347621 -0.940568 -0.204436 -0.271179
-20.573710 4.418345 462.362840 -0.763926 0.424395 0.486113
13.131714 3.521057 462.490240 -0.881990 0.013887 -0.471063
-7.153738 2.537746 462.303640 0.453762 -0.033075 -0.890509
-2.248248 2.252938 462.444641 0.075210 0.333387 -0.939785
0.327735 1.994264 462.276352 -0.050926 0.387806 -0.920333
-17.693500 1.495103 462.350553 -0.340118 -0.904541 0.257148
8.845630 1.519668 462.392581 0.056128 0.456707 -0.887845
-17.296778 1.062373 462.287167 -0.378706 -0.925508 -0.004006
-17.053398 0.226898 462.243626 -0.398611 -0.917083 -0.008255
-21.922960 -0.313572 462.341333 -0.240487 -0.547985 -0.801173
23.780905 -0.754620 462.345467 0.618211 -0.763636 -0.186211
-19.908416 -1.505362 462.458059 0.367202 -0.831091 -0.417672
24.821108 -2.504620 462.300005 0.383486 -0.386831 -0.838630
-22.936900 -3.954561 462.326987 -0.754440 -0.643959 -0.127028
-22.799790 -5.545369 462.290734 -0.835201 -0.549570 -0.020301
-22.721696 -8.124014 462.402624 -0.982255 -0.147003 0.116471
10.896827 -10.141306 462.466424 0.121623 -0.456875 0.881177
13.212706 -10.372494 462.230249 -0.360897 -0.745254 0.560670
-8.206830 -11.099657 462.275183 0.125682 -0.739790 0.660996
8.046681 -10.933711 462.482291 0.409478 -0.571892 0.710821
-2.783777 -11.411183 462.391088 -0.389697 -0.459361 0.798200
6.398112 -11.591453 462.507293 0.481094 -0.423311 0.767695
19.278486 -12.098308 462.308459 0.560028 -0.543836 0.624988
14.890110 -12.123034 462.500705 -0.404127 -0.654327 0.639169
1.109435 -12.705923 462.532443 -0.167015 -0.197933 0.965882
2.211069 -12.769199 462.258616 -0.054605 -0.453913 0.889371
16.818081 -13.157825 462.277618 -0.116945 -0.870280 0.478474
19.141272 -13.611763 462.383240 0.017479 -0.397263 0.917538
-18.279796 -14.625707 462.452045 -0.661782 -0.037666 0.748749
-15.166831 -15.518818 462.360887 -0.830185 0.263592 -0.491235
-10.313527 -16.101340 462.456763 0.039667 -0.477648 0.877655
1.194273 37.868681 462.599494 0.348953 0.086734 -0.933118
1.800545 37.336699 462.539475 0.763102 -0.004101 -0.646265
2.334695 36.302523 462.628329 0.971948 0.033475 -0.232802
-1.975463 35.152293 462.486290 -0.867999 0.242343 0.433414
5.048702 33.937839 462.612372 -0.875613 -0.348448 -0.334494
1.873664 32.677838 462.573608 0.861038 -0.483659 0.157123
3.636304 31.932762 462.735715 -0.671372 -0.497979 -0.548886
2.284117 30.754672 462.634783 -0.086837 -0.814689 -0.573360
-3.876253 29.247997 462.577062 -0.589944 0.561413 -0.580329
-4.809006 27.855953 462.724761 -0.714161 0.665653 -0.216519
-5.770599 26.198849 462.524567 -0.732239 0.598632 -0.324757
-6.448882 24.499175 462.751008 -0.687475 0.613687 -0.388287
12.408040 22.812165 462.588881 0.725035 0.555412 -0.407236
14.125037 20.796157 462.668288 0.686367 0.530438 -0.497530
-11.454749 18.896847 462.566592 -0.743765 0.343495 -0.573433
-12.843549 17.430732 462.599820 -0.568948 0.407725 -0.714184
4.087338 16.654011 462.644276 -0.156146 -0.174117 0.972266
-0.080778 16.182217 462.688112 0.513118 -0.054362 0.856595
-1.609926 15.466913 462.546583 0.557759 -0.122060 0.820979
8.339070 14.773878 462.701355 -0.562343 -0.083618 0.822665
21.324707 14.277048 462.536078 0.550741 0.504537 -0.664926
-17.687303 13.313873 462.559202 -0.495723 0.426591 -0.756491
22.630369 12.391931 462.476271 0.795811 0.500835 -0.340366
-19.549078 11.283189 462.571774 -0.897121 0.396990 -0.193840
12.332322 10.211861 462.543230 -0.921348 -0.112957 0.371966
23.873732 9.134424 462.735485 0.883493 0.334176 -0.328279
13.255596 8.030784 462.557001 -0.931588 -0.247414 0.266327
13.596287 6.695332 462.683160 -0.909797 -0.334050 0.246334
-20.594530 5.313120 462.748975 -0.791462 0.600488 0.114027
25.196024 4.586392 462.612991 0.872472 0.469766 -0.134582
-19.282975 3.196147 462.699136 -0.459581 -0.644734 0.610821
12.529643 2.649178 462.621482 -0.736447 0.129203 -0.664043
12.131782 2.284438 462.601817 -0.694803 0.146699 -0.704080
1.195675 1.900915 462.638147 -0.033560 0.369149 -0.928764
4.541569 1.664983 462.638516 -0.160303 0.314872 -0.935499
10.559177 1.519306 462.708513 -0.073935 0.338021 -0.938230
-17.860589 0.978225 462.527496 -0.600819 -0.799211 0.016692
-22.584207 -0.116726 462.608688 -0.493072 -0.001954 -0.869986
-23.347215 -0.624673 462.600128 -0.792840 0.188484 -0.579550
-19.074980 -1.320535 462.680282 -0.154179 -0.763437 -0.627211
25.309587 -2.529583 462.625391 0.418945 -0.578355 -0.699993
26.654668 -4.165815 462.743940 0.880565 -0.124506 -0.457277
-22.894579 -6.614601 462.672127 -0.963405 -0.263983 0.046522
-22.836607 -9.211783 462.698832 -0.966198 0.223404 -0.128656
10.523756 -10.275477 462.627101 0.034785 -0.625885 0.779139
25.624599 -10.492300 462.718109 0.781918 -0.371968 0.500244
-21.907355 -11.229869 462.471407 -0.561615 0.665661 0.491410
-3.752920 -11.224956 462.638538 -0.198231 -0.680160 0.705753
-8.230386 -11.457141 462.679305 0.131471 -0.706213 0.695685
