-9.393035 10.196554 989.095918 -0.289745 -0.654920 0.697945
-9.019520 10.122265 988.821843 -0.353751 -0.612744 0.706686
-7.946323 9.777482 988.620358 -0.531812 -0.570803 0.625588
-0.771460 8.965145 988.962389 0.525585 -0.654520 0.543475
-2.170729 8.473705 989.092986 0.221820 -0.452148 0.863920
-8.840854 47.922975 989.199443 -0.101479 -0.165947 -0.980899
-2.258338 47.695824 989.160472 0.041312 -0.396380 -0.917157
5.394317 48.289297 989.404250 0.095716 -0.357398 -0.929035
-10.754097 47.419895 988.976917 -0.069487 -0.111773 -0.991301
-3.944986 48.029747 989.525944 -0.106819 0.211959 -0.971423
2.303024 47.530558 989.149666 -0.177459 -0.506198 -0.843962
-11.891506 47.535506 989.365875 -0.169009 -0.216776 -0.961480
6.734372 47.397334 989.041455 0.313261 -0.625033 -0.714983
8.104696 46.952801 989.228193 0.500469 -0.458237 -0.734541
-14.150063 46.875350 989.245543 -0.347616 0.085155 -0.933762
8.928434 46.342704 989.146258 0.544029 -0.195033 -0.816085
11.540553 44.350302 989.058088 0.680926 -0.188843 -0.707586
-2.491761 44.169184 989.042448 -0.023386 -0.455971 0.889688
0.374794 43.848737 989.114906 -0.364184 -0.574496 0.733024
0.543872 43.814643 989.039238 -0.355270 -0.486978 0.797894
1.809565 43.244864 989.148188 -0.456866 -0.577815 0.676316
2.260438 42.984569 989.574859 -0.405955 -0.411462 0.816027
-19.976952 42.431675 989.103872 -0.778009 0.468961 -0.418063
15.141344 41.889396 989.199830 0.526586 -0.421742 -0.738134
4.869956 41.802856 989.106664 -0.642887 -0.570415 0.511197
16.415753 41.199578 989.204522 0.471067 -0.188024 -0.861825
6.709507 40.647915 988.985561 -0.576099 -0.265933 0.772910
-12.951297 40.559079 989.191292 0.772135 -0.210970 0.599416
-22.767429 39.639184 989.072686 -0.785271 0.334851 -0.520791
8.746656 38.729688 989.099680 -0.685816 -0.619380 0.382132
9.253449 38.018268 989.157932 -0.693237 -0.700949 0.167606
19.642261 37.290389 989.052367 0.866813 0.072547 -0.493328
9.995678 36.578504 989.169827 -0.703007 -0.707652 0.070777
-25.367303 35.626129 989.213523 -0.954618 0.024629 -0.296813
20.580548 35.318760 989.025450 0.818504 0.529718 -0.222376
10.733160 34.325378 989.112325 -0.811973 -0.568609 -0.131845
-25.956047 33.782882 989.137012 -0.838347 -0.484997 -0.248903
21.227302 33.665050 989.201053 0.774905 0.590436 -0.225626
-26.162357 32.825991 989.098378 -0.694527 -0.714425 -0.085021
-26.400116 31.860280 989.089372 -0.672057 -0.627320 -0.393459
-26.468008 31.614793 989.117759 -0.754818 -0.590952 -0.284651
10.580339 31.424584 989.253944 -0.815356 -0.406805 -0.411951
22.501182 30.981341 989.138753 0.713841 0.680782 -0.164216
-26.825010 30.400973 989.197054 -0.569627 -0.675545 -0.468151
22.856166 30.163439 989.060516 0.688759 0.702542 0.179015
-26.962033 29.813617 989.157713 -0.543438 -0.800018 -0.254257
-27.103239 29.737317 989.229113 -0.608746 -0.698225 -0.376710
8.313660 29.255252 989.125615 -0.615526 0.749602 -0.243360
23.919749 28.089257 989.248048 0.377528 0.874818 -0.303590
-27.638946 27.521868 989.168554 -0.718875 0.014085 -0.694997
6.618359 27.051782 989.317211 -0.686956 0.626314 -0.368541
-10.458100 26.540185 989.251084 0.945005 -0.032651 -0.325422
-10.240740 25.918688 989.000500 0.933126 -0.105019 -0.343872
-10.015612 25.285769 988.992339 0.938505 -0.169714 -0.300676
-30.360552 24.693014 988.898538 -0.715707 -0.060234 -0.695799
22.586789 24.795533 989.109504 -0.219336 0.581117 0.783706
27.796010 24.615873 988.674105 0.715396 -0.086165 -0.693386
23.523148 24.269788 989.055976 -0.416451 0.566844 0.710814
-25.631867 24.068566 989.496752 -0.396709 -0.524606 0.753266
-27.294205 23.910158 989.079800 0.511681 0.281428 0.811776
30.319639 23.540508 989.468093 0.456028 0.416305 -0.786593
31.235421 23.187357 988.863967 0.227599 0.025650 -0.973417
-9.630791 22.986341 989.272325 0.984141 -0.161055 -0.074344
-9.684062 22.478718 988.964105 0.986241 -0.135258 -0.095051
-23.927861 22.051908 988.862624 -0.938657 -0.220615 0.265050
-9.660568 21.640509 988.756285 0.984599 -0.071366 -0.159597
33.421413 21.615047 989.229844 0.968867 -0.183105 -0.166641
-8.800178 20.996980 989.045845 0.396577 -0.062539 -0.915869
18.599760 20.849381 988.851169 0.938602 0.210059 -0.273680
-35.756021 20.036021 989.246802 -0.835907 -0.231873 -0.497487
19.190394 20.052512 989.132251 0.731832 0.103171 -0.673631
-4.848595 19.566500 989.212073 -0.337240 -0.535927 -0.773984
32.882709 19.614891 988.976274 0.837763 0.148191 0.525541
-3.329868 19.519244 989.096683 0.204636 -0.398610 -0.893999
-2.557591 19.127564 989.045612 0.462329 -0.621523 -0.632424
0.883668 18.766254 989.236824 -0.718119 -0.158426 -0.677648
32.164540 19.043100 989.226888 0.478931 0.203744 0.853881
-35.985339 18.654413 989.321527 -0.985740 -0.124935 0.112731
31.454323 18.522117 989.149347 0.570538 0.244590 0.784003
30.077875 18.279671 989.565598 0.285619 0.440398 0.851159
-34.709270 16.228293 989.351934 -0.751078 -0.297752 0.589258
26.212717 15.977166 988.998530 0.513007 0.298783 0.804706
-33.548438 15.314242 988.922155 -0.610990 0.075136 0.788065
21.436995 14.491727 989.044096 0.282170 -0.493036 0.822980
18.651845 13.960558 989.071187 0.083064 -0.596842 0.798048
-30.454555 13.880704 989.174932 -0.214945 -0.296505 0.930529
17.017493 13.621166 988.966283 0.427387 -0.424041 0.798455
-23.712712 13.203724 989.799194 -0.038412 -0.885028 0.463950
-21.330383 12.884489 989.028619 -0.113696 -0.605038 0.788037
-18.872828 12.799192 988.812044 0.113818 -0.771518 0.625944
-17.083150 12.575058 989.513091 -0.191045 -0.766759 0.612848
14.815434 12.893892 988.950523 0.259746 -0.438182 0.860540
-16.563509 12.647229 988.788479 -0.246442 -0.758685 0.603046
8.562751 12.158711 989.371410 0.449122 -0.607101 0.655529
-13.471216 11.950673 989.037040 -0.364214 -0.388205 0.846549
5.989264 11.138856 989.105162 0.408809 -0.546783 0.730687
-9.980321 10.253548 989.954417 -0.518182 -0.686999 0.509430
-8.213570 9.833730 988.964641 -0.505676 -0.630634 0.588722
-7.023030 9.419662 988.971408 -0.089548 -0.695920 0.712514
-5.973067 9.416267 988.996311 -0.044819 -0.703687 0.709096
-0.060879 9.140199 989.443815 0.363444 -0.436588 0.822982
-1.440697 8.627817 989.230465 0.346395 -0.401560 0.847797
4.227695 48.170113 989.294752 0.021902 -0.247038 -0.968758
-8.202844 48.149740 989.453485 -0.077829 -0.176277 -0.981259
-3.906833 48.187123 989.724552 0.001249 -0.267900 -0.963446
0.302190 47.986363 989.427155 0.137800 -0.455407 -0.879554
4.174641 48.054592 989.227906 -0.049022 -0.695983 -0.716383
-1.523392 47.804093 989.287301 -0.042342 -0.340113 -0.939431
1.687301 47.437917 989.145993 -0.059661 -0.459530 -0.886156
-10.803473 47.756861 989.583692 -0.083316 -0.079749 -0.993327
-15.902426 46.157566 989.336669 -0.580141 0.050110 -0.812973
10.285458 45.564524 989.316764 0.590199 -0.098952 -0.801170
-4.356793 43.985948 989.233009 0.205743 -0.650491 0.731116
-1.114762 44.090987 989.345335 -0.051295 -0.672553 0.738269
-4.910414 43.858564 989.752270 0.294686 -0.276798 0.914627
1.069656 43.612685 989.128942 -0.571549 -0.489439 0.658621
-19.373759 43.121107 989.300397 -0.831670 0.416664 -0.367037
-9.768262 42.515517 989.609591 0.313328 -0.124279 0.941478
-10.459179 42.244238 989.615872 0.521571 -0.388118 0.759821
-10.845776 42.068347 989.711789 0.622232 -0.266690 0.736005
-20.467961 41.440817 989.301102 -0.587328 0.808597 -0.034887
16.674675 41.097592 989.245384 0.509378 -0.063445 -0.858201
-21.269626 40.596332 989.332192 -0.288130 0.919237 -0.268299
-21.449384 40.370152 989.406486 -0.228897 0.927416 -0.295815
18.045301 39.940914 989.237395 0.648706 -0.472202 -0.596830
7.326593 40.043241 989.325345 -0.769398 -0.377431 0.515337
-23.319260 38.853171 989.272266 -0.662788 0.671269 -0.331827
-23.919479 37.854109 989.346045 -0.773854 0.605496 -0.185807
-23.980888 37.581219 989.467410 -0.749759 0.587068 -0.305309
-24.325028 37.282613 989.313627 -0.743676 0.618698 -0.253297
19.845262 36.370984 989.461408 0.707871 0.696625 -0.116753
20.044441 35.877636 989.365988 0.623081 0.781118 -0.040299
-15.616196 35.746551 989.481641 0.920536 -0.381641 -0.083451
20.223927 35.121751 989.460312 0.652622 0.756840 0.035758
20.413191 34.502780 989.475919 0.642413 0.748768 -0.163255
10.612387 33.287406 989.443698 -0.866302 -0.472678 -0.161546
10.516348 32.668069 989.566172 -0.847765 -0.425479 -0.316642
-16.266133 32.003950 989.348024 0.794409 -0.545841 -0.266407
10.693437 31.929695 989.323905 -0.824549 -0.531425 -0.194181
10.296603 31.079232 989.388349 -0.854180 -0.196263 -0.481516
-26.894909 31.003086 989.482547 -0.746521 -0.482187 -0.458478
-14.905503 29.975853 989.512286 0.654450 0.559597 -0.508475
-14.331428 29.760666 989.348945 0.374789 0.872539 -0.313382
8.602012 29.178047 989.421713 -0.584796 0.710296 -0.391782
8.384925 28.943302 989.402384 -0.750719 0.646851 -0.134181
-11.833245 28.545506 989.110735 0.766113 0.589985 -0.254929
-11.475815 28.167144 989.051639 0.777975 0.465964 -0.421464
23.954288 27.549208 989.513888 0.312016 0.931092 -0.188979
-27.767862 27.529854 989.496712 -0.735150 0.053775 -0.675768
-10.591423 26.801819 989.177950 0.895707 0.163053 -0.413670
26.292434 26.047940 989.326605 0.758963 0.305805 -0.574856
5.350074 25.383243 989.379882 -0.912527 0.378227 -0.155686
22.270790 25.077841 989.344304 -0.116492 0.560434 0.819966
27.746593 24.834772 989.460160 0.572869 0.103655 -0.813066
-26.610987 24.243401 989.311414 0.176837 -0.118810 0.977043
24.068189 23.920420 989.255806 -0.715483 0.494004 0.494008
29.056646 23.980761 989.282501 0.378781 -0.145106 -0.914040
18.856597 23.283079 989.246025 0.896860 -0.386176 0.215662
32.051863 23.286162 989.322643 0.243343 -0.250426 -0.937054
-24.769580 23.319332 989.442579 -0.851118 -0.512114 0.115489
18.867718 23.092914 989.571049 0.910057 -0.394593 0.126858
32.906780 22.804961 989.266096 0.814899 -0.105944 -0.569839
33.313780 22.167038 989.270132 0.889098 -0.177467 -0.421913
-23.928928 21.708563 989.291943 -0.964713 -0.131416 -0.228163
-24.547278 19.609628 987.051692 -0.975621 0.137373 -0.171151
-8.586498 21.039605 989.519270 0.341172 0.129697 -0.931010
3.696145 20.646946 989.358678 -0.806200 0.374096 -0.458361
18.871917 20.425050 989.614579 0.900930 0.106785 -0.420622
-35.842307 19.954378 989.380249 -0.903808 -0.114138 -0.412436
-35.941921 19.764208 989.496864 -0.956780 -0.215926 -0.194802
1.876568 19.693947 989.326380 -0.458662 0.386430 -0.800188
20.334953 19.276074 989.391634 0.644415 -0.076723 -0.760817
22.633077 19.351430 989.274562 -0.522771 0.180655 -0.833111
21.458317 19.024487 989.438681 -0.170945 0.007414 -0.985253
-1.173301 18.256622 989.057954 0.347286 -0.154374 -0.924965
28.293148 17.589379 989.554477 0.346521 0.446943 0.824721
28.018526 17.178604 989.275608 0.417518 0.145105 0.897008
-34.447066 15.970318 989.261345 -0.717283 -0.075234 0.692708
-32.949186 15.048615 989.207235 -0.615348 -0.010813 0.788181
-32.101637 14.742329 989.577914 -0.488892 0.273815 0.828257
-31.406449 14.141935 989.308425 -0.404192 0.282998 0.869794
-29.881315 13.830405 989.625941 -0.364036 -0.014689 0.931269
-29.171243 13.504141 989.224914 -0.342807 -0.472092 0.812165
-23.059357 13.205135 989.399079 -0.175957 -0.623531 0.761740
-21.973726 12.931966 989.189328 -0.340680 -0.271605 0.900093
10.785232 12.569905 989.656371 0.121658 -0.650360 0.749821
13.528624 12.748010 989.271288 -0.100109 -0.864890 0.491877
10.303778 12.523091 989.596878 0.232891 -0.797798 0.556129
-14.126164 12.130082 989.254869 -0.359907 -0.523055 0.772580
-11.886302 11.216185 989.076391 -0.666762 -0.485430 0.565496
5.422669 10.876726 989.130266 0.510347 -0.682474 0.523235
4.272787 10.374473 989.081356 0.438402 -0.324014 0.838343
2.958867 9.943051 989.581804 0.426966 -0.197835 0.882361
-5.386061 9.155723 989.686705 -0.213708 -0.551566 0.806290
-3.488169 8.713564 988.844067 -0.482599 -0.633377 0.604923
-2.715742 8.420154 989.241521 0.021028 -0.538148 0.842588
3.452227 48.653806 989.551478 -0.200085 -0.142639 -0.969340
4.753820 49.117158 989.863323 0.095600 -0.188701 -0.977370
5.866466 48.467697 989.608313 0.276490 -0.566936 -0.775975
2.665615 48.395822 989.534926 -0.082896 -0.366788 -0.926604
-5.717918 48.055622 989.465403 0.111995 -0.062377 -0.991749
-4.759271 48.110479 989.632572 0.105181 0.273596 -0.956077
-3.056246 47.878459 989.332367 0.136418 -0.077969 -0.987578
-0.858053 48.393645 989.730038 -0.122112 -0.076781 -0.989542
-10.261289 47.922280 989.729758 -0.183895 -0.192956 -0.963821
-11.637429 47.776924 989.982654 -0.249158 0.373947 -0.893355
8.467701 47.160954 989.750938 0.600395 -0.233830 -0.764755
-15.391856 46.464645 989.378876 -0.503440 0.171394 -0.846860
10.198843 45.784075 989.555004 0.694299 -0.051083 -0.717872
11.164466 45.164300 989.757313 0.730473 -0.032130 -0.682186
11.506357 44.864522 989.774811 0.704123 -0.136712 -0.696794
-2.082807 44.060180 989.730125 0.038182 -0.461177 0.886486
-18.956866 43.653970 989.431040 -0.765417 0.460475 -0.449555
12.762647 43.725589 989.618195 0.664519 0.154123 -0.731205
-7.255680 43.212970 989.593335 0.251474 -0.290204 0.923332
13.639831 43.019045 989.571393 0.728872 -0.011747 -0.684550
3.087520 42.668849 989.730448 -0.605131 -0.469821 0.642716
14.466265 42.467265 989.698585 0.618975 0.089890 -0.780250
-19.755137 41.705173 989.592215 -0.413641 0.910243 0.018957
-11.772304 41.539536 989.547188 0.646279 -0.142350 0.749707
5.537071 41.345358 989.502181 -0.656470 -0.311192 0.687173
-12.406217 41.050311 989.379943 0.759354 0.019471 0.650386
-20.144505 40.618430 989.581812 -0.212135 0.759156 0.615370
-20.911470 40.374313 989.517434 -0.171090 0.851710 0.495296
-21.764936 40.028070 989.513932 -0.158122 0.978447 0.132815
7.134606 40.202922 989.586464 -0.831915 -0.343409 0.435876
18.527233 39.594439 989.700842 0.867379 -0.050389 -0.495091
-21.402394 39.346835 989.722911 0.078202 0.988892 0.126399
8.577165 38.638863 989.521284 -0.816313 -0.351621 0.458252
-23.451844 38.325666 989.531411 -0.478774 0.830416 0.284931
9.082265 37.659874 989.646155 -0.849400 -0.467860 0.244187
9.415098 37.019221 989.604704 -0.868402 -0.450560 0.207058
-24.392542 36.689948 989.684489 -0.597877 0.800612 -0.039539
19.545555 36.567383 989.550444 0.275891 0.946783 0.165787
9.754878 36.322648 989.578680 -0.820226 -0.570514 0.041747
-25.128670 35.780919 989.620690 -0.747651 0.639774 -0.178067
19.472489 35.801604 989.607108 0.295130 0.848844 0.438592
10.182770 34.562649 989.694584 -0.859003 -0.510274 -0.041643
20.277438 34.551499 989.532432 0.463510 0.881955 0.085517
-16.075142 33.233379 989.689665 0.781360 -0.623893 -0.015292
-26.489111 32.672403 989.504925 -0.949937 -0.095973 -0.297338
20.714779 31.883123 989.909851 0.420532 0.737917 0.527856
10.229124 33.288320 989.982546 -0.919358 -0.351197 -0.177321
-26.731035 31.809037 989.517931 -0.972398 -0.149126 -0.179451
-15.739353 31.169765 989.650886 0.904302 -0.247455 -0.347856
21.416191 30.911030 989.731299 0.586958 0.629384 0.509269
-27.437258 29.962770 989.653067 -0.901817 -0.309402 -0.301656
-14.646363 29.468599 989.758315 0.668714 0.628759 -0.396842
-13.698716 29.147595 989.588079 0.176968 0.964083 0.198056
22.668928 28.653177 989.693035 0.700476 0.713271 0.024037
-11.571977 27.796635 989.637075 0.599039 0.673911 -0.432430
23.372575 27.332096 989.777834 0.375145 0.922574 -0.090132
24.400502 26.930673 989.732584 0.075335 0.994759 0.069133
-10.583775 26.569626 989.719704 0.795340 0.309437 -0.521233
6.244269 26.545909 989.457958 -0.705575 0.707522 -0.039700
5.508408 25.633172 989.445602 -0.836812 0.501567 -0.219490
22.616161 25.461384 989.674987 0.014273 0.683426 0.729880
-30.457269 25.027770 989.482247 -0.736642 -0.113055 -0.666767
27.597186 24.898128 989.765422 0.534961 0.261381 -0.803428
4.724384 24.239383 989.563556 -0.842663 0.474058 -0.255320
-31.970793 23.999636 989.603933 -0.629373 0.135980 -0.765114
19.405206 23.898790 989.742719 0.852672 -0.267133 0.448988
-25.377798 23.820565 989.709344 -0.603446 -0.580555 0.546634
29.945129 23.716349 989.611974 0.486194 0.381733 -0.786063
32.093758 23.395394 989.592667 0.307083 -0.156741 -0.938686
-32.759593 23.516099 989.858429 -0.824615 0.188628 -0.533319
24.256621 22.899592 989.124563 -0.894193 0.415795 0.165930
4.306769 22.467923 989.482449 -0.934547 0.336981 0.114307
4.377712 22.291536 989.645932 -0.933299 0.346964 0.092567
-34.247130 21.720011 989.766780 -0.831446 0.166837 -0.529965
-9.432222 21.433900 989.519082 0.865613 0.039294 -0.499170
-8.931469 21.134848 989.562196 0.486106 0.124077 -0.865046
3.984834 20.888595 989.607598 -0.875647 0.425293 -0.228839
-35.420807 20.531679 989.724101 -0.738486 0.194410 -0.645634
3.049879 20.073044 989.717732 -0.412589 0.600169 -0.685250
23.721894 20.055073 989.594054 -0.726845 0.387982 -0.566715
-2.663875 19.752542 989.522068 0.557356 -0.485970 -0.673192
32.603707 19.640033 989.544812 0.709499 0.402483 0.578462
31.973516 19.599805 989.826883 0.089700 0.627801 0.773188
1.538254 19.394489 989.511242 -0.701548 0.434139 -0.565114
31.244472 19.414103 989.816777 0.258114 0.549862 0.794373
0.694995 18.715900 989.579328 -0.415001 0.022814 -0.909535
-0.013516 18.374826 989.357653 -0.247479 -0.062197 -0.966895
28.498726 17.802486 989.623543 0.357197 0.503384 0.786775
26.959147 16.917447 989.662232 0.617261 0.131666 0.775663
25.547890 15.990174 989.509583 0.478410 0.060216 0.876069
24.529031 15.544030 989.736299 0.637111 0.153450 0.755343
23.680748 14.918719 989.520764 0.440483 0.138655 0.886989
-30.535741 14.045285 989.659661 -0.313877 -0.024501 0.949148
-29.003928 13.503395 989.752993 -0.377373 -0.374566 0.846930
-27.968991 13.304848 989.614163 -0.125846 -0.441865 0.888211
-24.572504 13.214990 989.485129 0.069610 -0.590601 0.803956
-26.072456 13.192547 989.771902 -0.114536 -0.519368 0.846840
-17.799789 12.595916 989.792373 -0.090019 -0.842462 0.531183
12.326710 12.725477 989.401825 0.149071 -0.880144 0.450694
14.530054 12.737550 989.513215 0.132783 -0.468818 0.873257
-18.693547 12.584853 989.640398 0.246563 -0.850258 0.465045
9.672279 12.263710 989.943472 0.282664 -0.841331 0.460721
13.961572 12.698920 989.513662 0.021907 -0.738775 0.673596
-15.174337 12.255354 989.593660 -0.170141 -0.684090 0.709276
-13.131446 11.702726 989.621708 -0.440374 -0.646674 0.622802
6.728650 11.260970 989.830601 0.572526 -0.597599 0.561328
4.092508 10.322185 990.275704 0.370387 -0.640717 0.672529
-8.435722 9.765612 989.775121 -0.462072 -0.633662 0.620453
-4.799479 9.107500 989.411373 -0.322529 -0.741065 0.588896
-0.733344 8.846443 989.880433 0.548620 -0.423622 0.720806
-3.116967 8.451153 989.396073 -0.091216 -0.690013 0.718026
1.163987 48.997887 989.974392 -0.047968 -0.385244 -0.921567
1.981119 48.779312 989.794413 -0.085827 -0.132222 -0.987497
2.692500 48.808127 989.760849 -0.072325 -0.383971 -0.920508
-8.448446 48.364159 989.898751 -0.053700 -0.113587 -0.992076
-5.697260 48.273994 989.797164 0.034892 0.033992 -0.998813
-1.018282 48.588219 989.922778 -0.158500 -0.277433 -0.947581
-2.396163 47.867822 989.320678 -0.058799 -0.012268 -0.998194
-10.681311 47.918696 989.954774 -0.210340 -0.055012 -0.976079
-14.222001 47.019681 990.076258 -0.442583 0.264238 -0.856912
9.019047 46.914512 989.899030 0.565708 -0.179861 -0.804751
-16.418102 45.771691 989.878581 -0.714569 0.329347 -0.617188
-18.361013 43.964594 989.892024 -0.751113 0.631365 -0.192894
-3.002303 44.112153 990.405437 0.028556 -0.211049 0.977058
0.447084 43.702986 989.937144 -0.345289 -0.609906 0.713295
1.585448 43.267899 989.669267 -0.547490 -0.545563 0.634520
-18.945990 42.954557 989.882547 -0.614352 0.788189 0.036465
-9.727478 42.619776 989.955069 0.424355 -0.090476 0.900965
-11.142275 41.905128 989.775458 0.538285 -0.068972 0.839936
-18.503164 41.412008 989.933486 -0.313767 0.721445 0.617306
-18.705857 41.648607 989.916444 -0.284806 0.556982 0.780164
17.928686 40.413153 989.876128 0.681880 0.157761 -0.714249
-19.161069 39.875045 989.845158 -0.270518 0.743846 0.611157
-18.421272 40.214519 989.955549 -0.337226 0.797810 0.499777
-19.740097 39.551355 989.802246 -0.224675 0.802478 0.552766
-20.063136 39.059031 989.823026 -0.237367 0.824869 0.513077
7.976027 39.253511 989.937570 -0.837839 -0.232487 0.493939
-21.161703 39.429109 989.688115 0.103916 0.988639 0.108599
8.484582 38.613726 989.914302 -0.884939 -0.192683 0.423976
-14.569065 38.106774 989.931860 0.919435 -0.154621 0.361567
-21.909116 38.003240 989.885036 -0.145969 0.496035 0.855945
-21.115908 37.946246 989.972723 -0.061750 0.939712 0.336346
17.145420 38.443315 990.014546 0.016183 0.717860 0.695999
16.273264 37.748679 989.938143 0.187512 0.808922 0.557211
17.601099 37.465074 989.795576 0.031206 0.712507 0.700970
-21.332617 37.893786 989.966914 -0.172950 0.829904 0.530423
-23.303902 37.459953 989.798894 -0.231900 0.909350 0.345405
-23.082337 37.680999 989.784280 -0.156197 0.557227 0.815537
18.345511 37.247941 989.810407 0.019956 0.924681 0.380219
17.181083 37.317461 989.801211 0.118973 0.901254 0.416637
-22.994377 37.006832 989.909413 -0.105253 0.678305 0.727202
17.240566 36.604940 989.794397 0.278417 0.919904 0.276155
-23.777429 36.499510 989.906472 -0.177128 0.767695 0.615849
9.684316 36.137120 989.768230 -0.891932 -0.429552 0.141217
-24.682557 36.174240 989.757689 -0.485059 0.865376 0.125868
-24.272768 35.737063 990.031652 -0.314837 0.949144 -0.001812
-25.007870 35.233031 989.905342 -0.537542 0.839158 -0.082840
18.905398 35.715429 989.693757 0.145262 0.930502 0.336250
18.307216 34.879613 989.954389 0.324084 0.804599 0.497584
-25.815354 34.521826 989.829507 -0.680271 0.571898 -0.458437
10.216653 34.318741 989.712547 -0.889312 -0.436509 -0.136322
-26.085249 33.985969 989.770540 -0.952176 0.251663 -0.173284
19.592029 33.614523 989.888991 0.289437 0.814732 0.502433
-15.969661 32.943333 989.854895 0.838535 -0.535219 -0.101975
-26.633316 32.272789 989.996610 -0.948672 0.199227 -0.245623
-26.804657 31.595448 989.981436 -0.984126 0.065046 -0.165123
21.217511 31.542923 989.759610 0.533849 0.801361 0.269862
21.526126 30.522606 989.744251 0.611264 0.774179 0.164326
-15.052740 29.861446 989.890934 0.828658 0.379046 -0.411886
-27.575941 29.271558 989.930818 -0.997968 -0.054830 0.032454
8.993847 29.389144 989.544545 -0.698526 0.697149 -0.161383
-27.454158 28.518907 989.785333 -0.990151 -0.122273 0.068190
8.241112 28.500440 989.623181 -0.805606 0.591431 -0.034762
-11.957686 27.946029 989.798140 0.441311 0.880849 -0.171316
23.134315 27.612976 989.771204 0.503487 0.863985 -0.005522
-28.672411 26.791008 989.906474 -0.724522 0.313762 -0.613695
22.755330 26.811704 990.040886 0.333221 0.910667 0.244233
24.074466 26.877605 989.761636 0.056537 0.978059 0.200510
-10.612257 26.406876 989.946622 0.630562 0.562455 -0.534824
23.859087 26.402482 989.857106 -0.152834 0.985139 0.078379
-29.697993 25.886907 989.770215 -0.750357 0.104648 -0.652697
23.500143 25.755734 989.836034 -0.191820 0.958851 0.209307
22.343988 25.765187 989.856192 0.011078 0.777191 0.629167
26.306797 25.636821 990.006379 0.375259 0.826026 -0.420549
24.239797 25.281763 989.961414 -0.369458 0.906926 0.202450
-31.281914 24.469277 989.696650 -0.642995 -0.109119 -0.758057
20.277297 24.752175 989.768822 0.693617 -0.127788 0.708918
-26.746588 24.280679 989.777535 -0.065140 -0.046525 0.996791
24.599447 24.031464 989.874891 -0.628134 0.746351 0.220016
-25.163110 23.383726 989.943476 -0.699650 -0.587703 0.406318
32.258267 23.395372 990.013840 0.312886 0.082264 -0.946221
-28.519005 23.472319 989.861958 0.748380 0.289300 0.596852
24.739524 22.656753 989.822520 -0.842156 0.505123 0.188741
-29.183277 22.531329 989.884509 0.793928 0.444585 0.414756
24.885475 22.064079 990.041619 -0.770959 0.610339 0.181954
-9.581683 21.662800 989.895494 0.992683 0.061364 -0.103997
33.365792 21.641641 989.917375 0.967407 0.243663 0.068940
-8.168386 20.871406 989.994957 0.369934 0.259659 -0.892035
-7.243970 20.182091 989.839589 0.875487 0.265541 -0.403746
-4.803578 19.923127 989.656689 -0.524404 0.112817 -0.843963
19.729800 19.921527 990.011097 0.510524 0.082662 -0.855881
-2.244691 19.493817 989.816823 0.840949 -0.210845 -0.498347
-2.121486 19.366150 989.991594 0.892628 -0.158482 -0.422017
22.018272 19.132986 989.878943 -0.135774 0.275840 -0.951566
-25.791897 18.132871 987.872068 -0.624756 -0.025426 -0.780406
-0.361460 18.492619 989.921384 -0.236842 -0.026681 -0.971182
28.110892 17.976109 989.886779 0.431553 0.558244 0.708609
-34.566499 16.286468 990.103108 -0.672871 -0.113197 0.731048
-32.323894 15.047861 989.847142 -0.495691 0.364653 0.788238
23.071015 14.973100 990.133983 0.261031 0.185361 0.947367
20.640970 14.306495 989.752256 0.293214 -0.246680 0.923675
-30.589403 14.122715 989.782088 -0.360989 0.006284 0.932549
16.882101 13.445819 990.135807 0.529908 -0.470926 0.705285
15.882001 13.143903 989.768755 0.311963 -0.549079 0.775365
-16.859633 12.500812 989.780481 -0.113632 -0.670219 0.733413
-15.748068 12.257562 990.103349 -0.176645 -0.881601 0.437693
8.765017 12.074119 989.808601 0.340611 -0.842388 0.417573
8.328760 12.039953 989.465586 0.419240 -0.546634 0.724865
6.539379 11.180179 989.764536 0.486636 -0.726469 0.485210
1.957112 9.596679 989.948916 0.387059 -0.799564 0.459220
2.665456 9.830934 989.871029 0.413883 -0.442424 0.795589
-6.190643 9.069507 990.223423 -0.140561 -0.765210 0.628249
-0.143464 9.068094 989.777111 0.394136 -0.577093 0.715277
-2.759748 8.329583 990.082706 0.124940 -0.843255 0.522791
3.501139 49.466137 990.021339 -0.258460 -0.407214 -0.876000
0.481840 49.051866 990.071081 -0.110086 -0.239235 -0.964701
2.022630 49.233488 990.095087 -0.091419 -0.330698 -0.939298
-0.231962 48.602051 989.817281 -0.173839 -0.114303 -0.978118
6.708675 48.489128 990.303293 0.634765 -0.082078 -0.768334
-7.413781 48.545913 990.377932 -0.048403 0.350674 -0.935246
-3.193596 48.456795 990.120017 -0.071668 -0.172839 -0.982339
6.997116 48.287560 990.272076 0.519512 -0.045774 -0.853236
9.185117 46.882931 990.058096 0.606750 0.109786 -0.787275
10.570070 45.879120 990.201155 0.642573 -0.087416 -0.761222
11.333271 45.108455 990.037853 0.737714 0.059103 -0.672521
-17.955959 44.384210 990.018163 -0.603946 0.746087 -0.280363
-1.107736 43.978636 990.249504 -0.070946 -0.549225 0.832657
-4.872034 43.878023 990.091069 0.293312 -0.158860 0.942725
-8.274493 43.004569 989.823875 0.344980 -0.199217 0.917225
1.717449 43.180749 990.314109 -0.534122 -0.285766 0.795645
-8.793041 42.899344 990.013970 0.361845 -0.444102 0.819659
-18.398538 42.168394 990.066419 -0.405177 0.646914 0.646014
-10.332279 42.458503 990.362084 0.513940 -0.126759 0.848409
3.272992 42.618698 990.597387 -0.477094 -0.686514 0.548707
3.767899 42.415905 990.578707 -0.477094 -0.686514 0.548707
4.955969 41.738088 989.903256 -0.619383 -0.204222 0.758062
16.148461 41.546341 990.065784 0.378918 0.456391 -0.805064
6.386512 40.847786 990.236279 -0.655423 -0.249948 0.712704
-17.799530 40.412733 990.144476 -0.507018 0.847971 0.154523
17.985544 40.354647 990.029465 0.780269 0.240655 -0.577291
-13.768653 39.758190 990.139302 0.902520 0.158027 0.400605
8.034503 39.183151 989.995891 -0.826049 -0.150960 0.543005
15.014828 38.994918 990.315124 0.081857 0.845793 0.527194
15.326488 38.487498 990.170274 0.157350 0.756691 0.634555
14.730967 38.029083 990.235644 0.309170 0.814012 0.491730
15.407740 37.774110 990.082613 0.292854 0.884642 0.362828
-21.517518 37.163002 990.051618 -0.288475 0.791610 0.538642
-20.999279 37.345342 990.129091 -0.421894 0.787761 0.448819
16.077930 37.011594 990.016875 0.300874 0.905087 0.300488
15.622745 36.786003 990.167343 0.333792 0.721483 0.606667
-15.151083 36.286538 990.232551 0.941283 -0.283590 0.183200
-22.001151 36.317471 990.193662 -0.197583 0.956419 0.214997
-22.397816 36.016842 990.242172 -0.160553 0.979112 0.124753
9.642664 35.634746 990.111971 -0.924415 -0.374640 0.071424
17.818237 34.866373 990.143837 0.488467 0.871233 0.048502
-25.118707 34.838344 990.058131 -0.364872 0.912449 -0.185216
-25.872757 34.067376 990.086715 -0.686110 0.698306 -0.204013
-15.691480 34.020476 990.247762 0.972631 -0.230168 0.031819
-26.329403 32.981829 990.117018 -0.892113 0.411819 -0.185847
-26.562122 32.363486 990.081539 -0.887668 0.425972 -0.174909
-26.422601 32.568096 990.214204 -0.883938 0.467289 -0.017180
-15.690125 31.380942 990.030475 0.989324 -0.078860 -0.122556
9.999902 30.902849 989.937448 -0.915882 -0.053610 -0.397852
-15.566283 30.718645 990.290972 0.956373 0.244683 -0.159625
21.602011 29.765398 990.005200 0.703593 0.698523 0.130470
9.345180 29.408975 990.051164 -0.834265 0.435498 -0.338147
-14.553847 29.152986 989.957792 0.698794 0.650570 -0.297400
-27.472861 28.130683 990.070237 -0.983414 0.141908 -0.112957
8.036852 27.962262 989.939759 -0.796231 0.604990 -0.001707
-12.456973 27.645291 990.218555 0.393604 0.918741 0.031482
7.683817 27.279543 990.384163 -0.748687 0.618783 -0.237857
22.451435 26.632815 990.129845 0.340758 0.892901 0.294298
22.649046 26.412125 990.027013 0.278699 0.846357 0.453879
21.603141 26.003310 990.216879 0.541127 0.535056 0.648766
24.698394 25.540609 990.068877 -0.213814 0.974316 0.070660
24.688347 25.373685 990.080299 -0.257825 0.929055 0.265298
20.412104 24.927751 990.213258 0.767004 -0.045442 0.640031
-9.837050 24.771961 990.329942 0.941262 0.269802 -0.203057
-27.359455 24.377526 990.141151 -0.042376 0.419330 0.906844
-31.631343 24.348078 990.045982 -0.649664 0.134368 -0.748252
5.636685 24.377428 990.209896 -0.567629 0.823202 -0.011596
5.386938 24.098368 990.186063 -0.560014 0.818390 -0.128928
-9.759904 24.009935 990.262308 0.985691 0.167667 -0.017366
-25.427655 23.595097 990.067168 -0.741377 -0.420958 0.522642
-9.618825 23.029505 990.168184 0.987262 0.152722 -0.044602
-25.075465 23.171955 990.031045 -0.838145 -0.461276 0.291098
-9.606243 22.743509 990.131912 0.995443 0.091602 0.026502
-24.826474 22.287445 990.511310 -0.833810 -0.521413 0.181352
-9.630367 22.668521 990.232615 0.983173 0.134583 0.123526
-29.434807 21.635875 989.994434 0.946773 0.249703 0.203147
-34.023371 21.895101 990.126277 -0.858445 0.409145 -0.309311
-34.386063 21.333132 990.313705 -0.809144 0.432072 -0.398246
-9.318807 21.101677 990.258548 0.492913 0.471469 -0.731269
4.252911 20.890473 990.137076 -0.883214 0.432102 -0.182266
-7.596146 20.534113 990.041401 0.685853 0.410286 -0.601058
-7.399497 20.181024 990.213199 0.756270 0.485883 -0.438148
3.812718 20.166478 990.110662 -0.673621 0.656833 -0.338829
-5.145501 19.897616 990.041250 -0.557507 0.286407 -0.779203
20.480221 19.534173 990.055732 0.539819 -0.221435 -0.812134
20.589462 19.440805 989.977411 0.453145 -0.198256 -0.869111
22.103963 19.117336 990.161583 0.023270 0.276011 -0.960873
2.283528 18.999294 990.240998 -0.526669 0.821475 -0.218631
-0.672753 18.486698 990.104702 -0.034214 0.012347 -0.999338
27.196328 17.748062 990.215752 0.579679 0.574522 0.577838
26.265839 16.516301 989.740663 0.475361 0.366277 0.799921
-33.929420 15.779462 989.890433 -0.458406 0.210077 0.863557
-31.606523 14.935469 990.224921 -0.617792 0.209945 0.757797
21.170247 14.519204 990.621307 0.435899 -0.355657 0.826741
19.221851 14.024248 990.148309 0.176376 -0.667419 0.723494
18.011521 13.765208 989.911431 0.396677 -0.437160 0.807180
-27.809055 13.395316 990.024948 -0.107494 -0.343094 0.933130
-24.553938 13.151501 989.932095 0.033696 -0.557954 0.829188
-21.899212 12.817291 990.563436 -0.321990 -0.588520 0.741598
-21.321188 12.734803 990.080861 -0.139730 -0.834894 0.532380
-17.145763 12.469891 990.112783 -0.090777 -0.693166 0.715038
10.707316 12.448347 989.956848 0.155231 -0.759755 0.631407
-12.330149 11.204918 990.439136 -0.400010 -0.611993 0.682244
5.938476 10.810089 990.483903 0.458043 -0.604879 0.651397
-11.332442 10.688552 991.217887 -0.536116 -0.751619 0.384250
-10.731824 10.498173 990.200047 -0.484386 -0.546806 0.682915
5.117870 10.617069 990.072471 0.348467 -0.626041 0.697598
3.098769 10.003246 990.901937 0.470273 -0.423570 0.774229
-8.483210 9.698388 990.158958 -0.517507 -0.696131 0.497583
-5.145370 8.911104 990.238265 -0.328371 -0.518566 0.789470
3.254627 49.729261 990.326464 -0.232171 -0.472339 -0.850290
0.657341 49.446486 990.336665 -0.004893 -0.409673 -0.912220
-0.888024 49.106301 990.328827 -0.324160 -0.133895 -0.936479
-2.747641 48.817447 990.520076 -0.259681 0.172793 -0.950110
-6.230420 48.591703 990.495858 -0.082573 0.137073 -0.987113
-4.546848 48.604437 990.367572 -0.009154 0.203566 -0.979018
-3.167263 48.660537 990.417856 -0.142088 -0.330110 -0.933187
-11.938814 47.740566 990.350691 -0.288395 0.442925 -0.848908
-13.441852 47.304260 990.403284 -0.409405 0.365666 -0.835868
-13.917218 47.135977 990.238594 -0.449351 0.358476 -0.818278
-15.847255 45.942237 990.463052 -0.651801 0.683484 -0.328641
11.926126 44.545113 990.414831 0.798812 0.242417 -0.550576
-2.907867 44.088789 989.775326 -0.074968 -0.580315 0.810935
-0.434261 43.902689 990.389599 -0.286957 -0.540816 0.790679
-6.740249 43.416590 990.209239 0.308050 -0.400546 0.862941
-8.298183 43.211546 990.575817 0.290895 -0.070264 0.954172
12.957557 43.439290 990.399132 0.695942 0.511163 -0.504358
-17.863081 42.065657 990.213956 -0.359603 0.518079 0.776067
14.411310 42.356523 990.260464 0.529117 0.761846 -0.373664
-11.334396 42.031677 990.434789 0.518354 -0.059817 0.853072
-12.101354 41.605901 990.436271 0.585188 0.042650 0.809775
-17.462254 41.543559 990.256076 -0.374841 0.833131 0.406678
6.185183 40.979766 990.267606 -0.643953 -0.244981 0.724782
17.464396 40.652702 990.309972 0.505563 0.607725 -0.612435
17.933470 40.110733 990.425389 0.638153 0.656022 -0.402983
-17.816956 39.238887 990.438532 -0.494873 0.798369 0.343085
14.556563 39.012836 990.387380 0.237983 0.681424 0.692116
15.917158 39.145621 990.367102 -0.034433 0.351798 0.935443
17.694815 38.974279 990.332715 0.001884 0.486529 0.873663
14.479838 38.507062 990.331002 0.270669 0.767973 0.580479
18.171690 38.855527 990.249011 0.349578 0.829658 0.435272
-18.608433 38.381230 990.509072 -0.519883 0.853913 -0.023524
14.374138 38.331341 990.339363 0.393079 0.830369 0.394939
14.475775 37.335293 990.389006 0.390389 0.863154 0.320254
-20.041982 37.139115 990.484707 -0.428629 0.902509 -0.041893
14.301882 37.038382 990.504148 0.373677 0.848347 0.375065
15.321120 36.303726 990.354700 0.404440 0.828523 0.387270
-21.903355 35.853407 990.417132 -0.254940 0.893349 0.370044
15.757811 36.134331 990.276608 0.288473 0.949368 0.124435
16.081073 35.798692 990.311397 0.305562 0.927612 0.214865
-22.637413 35.546192 990.425111 -0.191176 0.949269 0.249679
-23.798799 35.178130 990.344049 -0.279908 0.934921 0.218113
-24.729373 34.483577 990.347976 -0.364176 0.930797 0.031513
-25.500848 34.192408 990.249445 -0.414661 0.902137 -0.119185
9.922830 33.761472 990.440390 -0.939624 -0.341821 0.016307
9.927237 33.199832 990.646057 -0.954049 -0.246658 -0.170150
-15.696766 32.059274 990.356525 0.994562 -0.030686 -0.099520
10.136820 31.736226 990.323877 -0.969688 -0.230716 -0.080474
-27.067946 30.686200 990.310374 -0.773823 0.567963 -0.280386
20.104409 30.570421 990.515391 0.469882 0.854502 -0.221443
9.681452 29.995229 990.191143 -0.943486 0.242980 -0.225378
-27.495612 29.267985 990.352502 -0.923095 0.333983 0.190658
21.630611 29.051361 990.349411 0.716635 0.596842 0.360853
8.695436 28.412045 990.374357 -0.761073 0.584031 -0.282268
21.894782 27.453272 990.450375 0.629279 0.699155 0.339397
-11.458759 26.578898 990.413539 0.496796 0.867787 0.011813
-28.949473 26.298281 990.333429 -0.594554 0.751837 -0.285037
21.810634 26.382077 990.291503 0.519052 0.698192 0.493064
-29.249713 25.901482 990.425597 -0.403074 0.800802 -0.442998
21.117962 25.603620 990.203853 0.581002 0.397239 0.710378
25.705376 24.943025 990.293515 0.005953 0.999982 -0.000085
26.986597 24.613151 990.495161 -0.033330 0.914912 -0.402276
6.361341 24.695833 990.472651 -0.494078 0.844487 0.206708
26.324298 24.505388 990.461922 -0.337150 0.924416 0.178283
-9.880058 24.471262 990.499945 0.920997 0.387832 0.036758
-32.106806 24.019490 990.359528 -0.725903 0.363596 -0.583834
25.563033 23.731305 990.338346 -0.391216 0.836815 0.383003
-9.727092 23.579314 990.312755 0.940945 0.338477 -0.007423
-28.674812 23.773452 990.264415 0.643245 0.461707 0.610789
-29.079888 23.240965 990.244220 0.630535 0.552837 0.544790
5.005711 23.308726 990.248828 -0.482806 0.875705 0.006341
-32.807024 23.368175 990.348715 -0.829697 0.522099 -0.197521
33.021864 22.728577 990.266890 0.772886 0.348564 -0.530235
-29.600427 22.068838 990.327098 0.889372 0.424008 0.170983
-24.559485 21.671560 990.396818 -0.879659 -0.473166 -0.048098
-24.621913 21.307800 990.488203 -0.951577 -0.248730 -0.180649
4.334528 20.984674 990.233165 -0.889383 0.455612 -0.037621
4.338415 20.806257 990.350967 -0.845791 0.492651 -0.204774
-4.454000 20.120772 990.428905 -0.015811 0.353036 -0.935476
19.856227 20.090438 990.483457 0.505236 -0.001443 -0.862980
20.204662 19.952298 990.669752 0.682724 -0.052393 -0.728795
20.407934 19.733054 990.470184 0.567646 -0.040819 -0.822260
20.769366 19.614618 990.770008 0.504022 0.093681 -0.858595
2.772053 19.050498 990.464223 -0.520187 0.838727 -0.161064
-29.582421 19.668483 990.910282 0.644493 0.632846 -0.429109
-1.100443 18.546343 990.467890 0.149966 0.104053 -0.983201
25.713741 16.596253 990.164803 0.627574 0.059789 0.776258
-33.738702 15.961815 990.421508 -0.417497 0.409542 0.811155
-33.043864 15.680307 990.301776 -0.296139 0.279848 0.913229
-31.592433 14.981567 990.288485 -0.587778 0.451480 0.671329
18.519385 13.866867 989.801965 0.281517 -0.541544 0.792135
-27.455375 13.317237 989.877309 -0.167033 -0.177712 0.969803
-26.687780 13.241474 989.889276 -0.104840 -0.532781 0.839734
-24.440866 13.161639 990.572212 -0.114598 -0.513736 0.850260
-22.137911 12.876529 990.523666 -0.214677 -0.663501 0.716715
-21.137528 12.658389 990.647660 -0.244971 -0.756322 0.606602
-18.545548 12.465862 990.412287 0.223074 -0.644871 0.731013
-17.764965 12.532109 990.027786 -0.084760 -0.744683 0.662015
-19.139234 12.439753 990.039392 -0.012609 -0.571961 0.820184
-17.336373 12.400804 990.428707 -0.046157 -0.767135 0.639823
4.711335 10.474567 990.270509 0.307102 -0.383548 0.870964
-9.207866 9.952570 990.379455 -0.433081 -0.597825 0.674571
1.887332 9.578183 990.318147 0.364099 -0.733900 0.573431
-7.155722 9.240816 990.362049 -0.370893 -0.554897 0.744666
0.774109 9.245644 990.509723 0.415592 -0.376736 0.827861
-4.567050 8.651957 990.426668 -0.456440 -0.741841 0.491258
-3.743269 8.361153 990.289991 -0.412403 -0.267733 0.870771
-2.974195 8.302009 990.138945 0.191986 -0.779584 0.596146
4.821453 49.809113 990.740237 0.388548 -0.093500 -0.916672
-1.719392 49.222415 990.645695 -0.242626 -0.120739 -0.962577
-3.023709 48.754225 990.511002 -0.178456 -0.291935 -0.939642
-8.077869 48.511057 990.441553 -0.108759 0.502926 -0.857460
-9.939376 48.145930 990.514341 -0.255423 0.461768 -0.849429
-12.510583 47.574609 990.641788 -0.377972 0.694540 -0.612170
-14.344190 46.857842 990.706160 -0.524847 0.371401 -0.765896
-15.858827 45.639647 990.728264 -0.663300 0.697177 -0.271988
11.068388 45.441137 990.585040 0.821250 0.248947 -0.513394
-17.428750 44.196733 990.522094 -0.587903 0.807423 -0.049382
-1.070764 43.977018 990.577695 -0.170647 -0.412609 0.894781
-5.281910 43.796859 990.341892 0.327011 -0.181234 0.927479
-17.629603 43.284416 990.494011 -0.439900 0.832662 0.336396
-9.141342 42.966291 990.549388 0.371606 -0.399017 0.838269
-16.308096 42.583943 990.719314 -0.289663 0.875900 0.385869
-16.919587 42.425335 990.545432 -0.374736 0.648883 0.662211
13.549861 42.070037 990.720961 0.273355 0.959456 0.068712
4.748814 41.910342 990.299378 -0.470241 0.039653 0.881647
14.023830 41.950466 990.619127 0.247382 0.960678 0.126096
15.204688 41.431421 990.540066 0.064301 0.993169 0.097369
14.852869 40.943718 990.602383 0.108520 0.955573 0.274052
-16.238778 41.105919 990.648950 -0.441463 0.638290 0.630631
13.290137 41.464154 990.793609 0.120863 0.914677 0.385693
-16.435427 40.894709 990.599702 -0.394628 0.816805 0.420829
13.845578 40.778685 990.685302 0.092559 0.795660 0.598630
6.953364 40.467361 990.443805 -0.701289 0.089265 0.707266
17.282288 40.314635 990.603144 0.288514 0.942356 -0.169485
7.269224 40.243619 990.669049 -0.814776 0.023908 0.579282
13.972200 40.355904 990.637789 0.109327 0.623393 0.774228
17.479843 40.129151 990.567166 0.282182 0.959344 0.005753
14.386419 39.688906 990.532300 0.095463 0.821006 0.562881
17.720033 39.928611 990.539556 0.277992 0.960000 -0.033471
16.415563 39.938810 990.674912 0.002132 0.839674 0.543087
-14.131255 39.494275 990.544234 0.733545 0.538578 0.414542
17.388049 39.450439 990.527297 -0.005330 0.853208 0.521544
13.686473 39.030925 990.548378 0.390352 0.701934 0.595747
8.338468 38.832877 990.510271 -0.896018 -0.034341 0.442687
8.323193 38.879614 990.700835 -0.934853 -0.133141 0.329126
-14.896828 37.447760 990.754743 0.936312 0.233441 0.262345
13.635745 37.266273 990.725652 0.512696 0.773840 0.371905
-19.883376 36.970464 990.661329 -0.490592 0.867489 -0.082352
-20.508589 36.536336 990.577737 -0.553666 0.816582 -0.163244
-20.960899 36.057599 990.601825 -0.433131 0.877689 -0.205086
-22.157085 35.248724 990.665879 -0.282749 0.959043 0.017003
-22.886940 34.740513 990.727243 -0.328080 0.942803 0.059034
-22.906955 34.529264 990.793148 -0.429650 0.879152 0.206138
16.051744 35.342507 990.490422 0.310907 0.917289 0.248834
16.333929 35.188031 990.494598 0.360612 0.844753 0.395413
16.850735 34.252186 990.807583 0.398407 0.819003 0.412924
-23.769599 34.229019 990.641819 -0.177202 0.976187 0.125134
-24.153989 33.641375 990.689172 -0.297086 0.917353 0.264961
-24.833546 33.573422 990.578913 -0.165683 0.835786 0.523461
-24.722907 32.921385 990.728138 -0.272905 0.842495 0.464462
-25.116959 32.826645 990.678701 -0.223842 0.780981 0.583065
-25.871977 32.436415 990.592408 -0.374232 0.903930 0.207029
-25.799987 31.577624 990.784486 -0.402624 0.896384 0.185443
-26.287274 31.312762 990.621907 -0.527690 0.842567 0.107813
-15.717718 31.076712 990.761084 0.976747 0.210320 -0.041607
-27.270840 30.103533 990.529497 -0.718089 0.625812 -0.304479
9.709696 29.868723 990.509569 -0.945344 0.261382 -0.194948
20.969441 28.925294 990.937303 0.707086 0.703613 0.070408
20.981579 28.565270 991.052412 0.724957 0.629936 0.278599
21.761842 28.178505 990.518552 0.694920 0.702416 0.153943
-13.243175 27.523357 990.600453 0.511889 0.850618 -0.120078
-27.977024 26.805779 990.599465 -0.520776 0.796604 -0.306944
-12.076819 26.748264 990.589763 0.401093 0.911201 0.094004
-11.115034 26.183553 990.556222 0.362584 0.897982 -0.249322
20.945535 25.916137 990.714827 0.750146 0.446054 0.488177
-29.575684 25.361709 990.664857 -0.371239 0.884278 -0.283256
-28.185488 24.941098 990.665507 0.093747 0.835802 0.540969
6.509747 24.743650 990.531093 -0.556440 0.706499 0.437302
-28.324704 24.548081 990.540625 0.270853 0.741282 0.614117
19.834148 24.120200 990.582377 0.859226 -0.304049 0.411443
-32.069615 24.015332 990.579162 -0.697062 0.339994 -0.631276
26.689825 24.260060 990.599925 -0.278511 0.952341 -0.124409
6.121483 23.573546 990.681034 -0.497672 0.847145 0.186194
-9.743241 23.154542 990.525331 0.927875 0.372768 -0.009615
5.845324 23.088902 990.735516 -0.553025 0.825925 0.109594
19.207445 22.500302 990.847924 0.955364 -0.279239 0.096467
5.044832 21.772651 990.841493 -0.743602 0.643864 -0.180264
-30.077616 21.464139 990.847097 0.720876 0.681179 0.127800
4.559154 21.088982 990.576388 -0.880389 0.469929 -0.063886
18.997783 20.877510 990.419922 0.760173 -0.351866 -0.546194
18.966656 20.626705 990.246099 0.713823 -0.338383 -0.613150
-29.664375 20.477810 990.524108 0.752780 0.628931 -0.194341
-3.906570 20.096699 990.550449 -0.012654 0.613253 -0.789786
-2.119233 19.869234 990.620363 0.799266 -0.557107 -0.225401
-6.175244 19.370438 990.647253 -0.591396 0.360065 -0.721529
-6.787049 19.279379 990.584207 0.289124 0.422374 -0.859074
23.741659 19.295372 990.670152 -0.330736 0.619834 -0.711631
-0.103548 18.572959 990.599762 -0.193004 0.393298 -0.898925
-0.647849 18.511363 990.648373 -0.024911 0.185325 -0.982361
27.200476 18.066986 990.398570 0.580216 0.496996 0.645247
-34.808837 16.737974 990.631912 -0.597508 0.424645 0.680191
25.080483 16.397213 990.355070 0.502421 0.107478 0.857917
24.217492 15.892650 990.462959 0.614480 0.132343 0.777753
-31.237396 14.958248 990.537083 -0.467650 0.478804 0.743001
20.888463 14.452879 990.693814 0.277611 -0.351229 0.894187
18.913144 14.022115 990.757791 0.224752 -0.663636 0.713494
-28.481827 13.820365 990.917255 -0.143747 -0.011460 0.989548
-26.076560 13.190184 989.990595 -0.173915 -0.564328 0.807024
15.894801 13.007491 990.944227 0.339545 -0.598866 0.725306
-20.176130 12.428541 990.468328 -0.194544 -0.328154 0.924374
14.088007 12.636037 990.403852 0.226539 -0.504279 0.833296
10.050275 11.975001 991.012608 0.140915 -0.816623 0.559705
-15.785589 12.074403 991.010599 -0.201371 -0.887795 0.413848
9.081147 11.940171 990.408512 0.363271 -0.791593 0.491340
-13.553112 11.705653 990.112552 -0.313477 -0.655560 0.687003
-12.393559 11.214596 990.511968 -0.471627 -0.735646 0.486203
-9.066159 9.826940 990.905478 -0.502084 -0.438321 0.745511
-6.656905 9.113808 990.395095 -0.239989 -0.645600 0.724986
-1.777957 8.419788 991.097969 0.458433 -0.505075 0.731258
0.518079 49.906620 990.883796 -0.016865 -0.378585 -0.925413
4.104369 50.027981 990.739625 0.239623 -0.159285 -0.957710
-2.357532 49.159856 990.772530 -0.266054 -0.193831 -0.944270
-6.932208 48.665411 990.949424 -0.088315 0.341967 -0.935553
-9.389326 48.264730 990.771258 -0.343788 0.366530 -0.864561
-11.353785 47.871543 990.781060 -0.256785 0.488146 -0.834131
-13.590516 47.140783 991.035170 -0.431755 0.470552 -0.769525
-14.741006 46.355643 991.005970 -0.566717 0.748945 -0.343385
10.913718 45.507770 991.084314 0.817934 0.373376 -0.437692
-16.361213 44.472347 990.944395 -0.401948 0.859504 0.315738
-15.893038 44.200911 991.079297 -0.320519 0.810911 0.489582
-5.763438 43.861759 991.141136 0.280137 -0.607384 0.743376
0.487990 43.695407 990.908570 -0.305835 -0.373235 0.875877
-16.636452 43.474798 990.827765 -0.227166 0.400146 0.887851
12.196184 43.620748 990.979082 0.668430 0.731460 -0.134785
-8.335781 43.383971 991.053289 0.352191 -0.065410 0.933640
-15.492441 43.398512 991.029627 -0.286360 0.827832 0.482382
-15.673307 42.548503 990.871935 -0.331389 0.653487 0.680542
12.159386 42.579745 991.046718 0.257443 0.821218 0.509239
4.912851 41.922067 990.785610 -0.545253 -0.202843 0.813359
-12.193812 41.934620 991.010859 0.522929 -0.028320 0.851906
12.176464 41.813585 990.945339 0.200749 0.725778 0.657987
13.242569 41.990085 990.792410 0.136272 0.932817 0.333590
12.251474 41.143858 990.908553 0.273475 0.866139 0.418349
6.681665 41.017843 991.233702 -0.701887 -0.128740 0.700557
16.093214 40.581975 990.749478 -0.047831 0.998310 0.032999
-16.010826 40.071812 990.877932 -0.314113 0.949343 -0.008981
-16.816350 39.781493 990.690314 -0.439692 0.871364 0.217705
7.974616 39.403489 990.769029 -0.845814 0.126529 0.518256
-16.473464 39.259551 990.973663 -0.425413 0.900276 0.092336
-17.530513 38.710278 990.798407 -0.419778 0.903545 0.085985
13.049472 38.280115 990.755377 0.430066 0.846775 0.313073
-14.956022 37.953254 990.935754 0.821693 0.439836 0.362443
13.376334 37.786082 990.698994 0.486116 0.731696 0.477821
-15.101573 36.869645 990.827699 0.861888 0.344015 0.372562
-20.780460 36.271081 990.565094 -0.560728 0.817014 -0.134430
14.063383 35.801094 990.979883 0.403910 0.911589 0.076559
-21.655207 35.002311 990.934305 -0.297891 0.942731 -0.150061
15.028929 35.258069 990.884848 0.424425 0.877225 0.224365
15.585722 34.824437 990.913655 0.407211 0.908845 -0.090439
15.825303 34.681925 990.907147 0.358338 0.931574 0.061345
-23.414116 33.809657 990.855501 -0.347726 0.900982 0.259458
17.691061 33.311738 990.927214 0.557216 0.829915 0.027401
-24.510182 33.036954 990.747329 -0.283304 0.918485 0.275907
-25.268127 32.079392 990.807375 -0.273785 0.773952 0.570999
-25.281106 32.053805 990.810898 -0.260910 0.822582 0.505256
19.270789 31.694694 990.630359 0.815271 0.578383 -0.028391
19.459204 30.909911 990.958832 0.807727 0.521855 -0.274306
20.243343 30.081708 990.889955 0.653577 0.687564 -0.316374
-27.158378 29.763932 990.787067 -0.666001 0.742201 0.074699
-15.308289 28.508444 991.124248 0.703949 0.708709 -0.046770
21.595205 28.095507 990.654567 0.736718 0.511846 0.441883
21.586990 27.146781 990.675859 0.758908 0.445032 0.475400
7.806287 26.986746 990.760483 -0.659749 0.730144 -0.177825
-27.559058 26.706191 990.885114 -0.476848 0.844079 -0.245247
