29.298000 -32.826000 -67.636000 -0.064412 -0.110078 -0.991834
28.969000 -29.792000 -66.626000 0.598021 0.412394 -0.687242
29.093000 -28.656000 -64.466000 0.783212 0.565474 -0.258493
29.781000 -30.379000 -66.368000 0.611232 0.540549 -0.578102
30.241000 -33.818000 -67.682000 -0.261378 -0.163585 -0.951274
30.485000 -36.596000 -67.134000 -0.334545 -0.196008 -0.921770
30.365000 -39.884000 -68.134000 0.001171 0.963847 -0.266453
30.296000 -38.460000 -70.577000 -0.058623 0.975717 -0.211043
30.839000 -41.284000 -72.032000 -0.247703 0.051098 -0.967488
30.776000 -44.272000 -73.162000 -0.464703 0.211394 -0.859862
31.050000 -47.375000 -74.286000 -0.554085 0.183740 -0.811930
31.555000 -50.922000 -75.547000 -0.443946 0.116686 -0.888424
31.852000 -53.852000 -77.294000 -0.224303 0.110612 -0.968222
31.747000 -56.326000 -75.199000 0.415150 -0.879876 -0.231235
31.722000 -57.274000 -71.602000 0.462532 -0.864869 0.195104
31.915000 -57.611000 -68.482000 0.360917 -0.932189 -0.027628
33.072000 -56.933000 -68.915000 0.358008 -0.891090 -0.278906
32.701000 -56.691000 -71.124000 0.479802 -0.837328 0.262052
32.911000 -55.680000 -74.288000 0.479830 -0.868548 -0.124048
32.758000 -54.863000 -77.458000 0.032699 -0.700399 -0.713003
32.700000 -51.633000 -76.566000 -0.261760 0.574852 -0.775259
32.297000 -48.242000 -75.154000 -0.456113 0.110696 -0.883011
32.195000 -45.398000 -74.238000 -0.594188 0.200130 -0.779031
31.790000 -41.950000 -72.994000 -0.518393 -0.099470 -0.849338
31.832000 -39.233000 -72.178000 -0.588930 0.238013 -0.772342
31.775000 -38.760000 -69.625000 0.252014 0.758102 0.601474
31.506000 -38.462000 -67.415000 -0.251889 0.112319 -0.961216
31.248000 -34.887000 -67.803000 -0.348765 -0.343689 -0.871918
31.032000 -31.969000 -66.960000 0.488564 0.505513 -0.711169
31.437000 -31.884000 -66.439000 0.625817 0.611971 -0.483574
32.185000 -34.682000 -67.839000 0.144783 0.035323 -0.988833
32.516000 -38.306000 -67.594000 -0.301247 -0.068005 -0.951118
32.282000 -39.153000 -69.472000 0.415593 0.727631 0.545742
32.568000 -38.649000 -72.179000 -0.053462 0.389104 -0.919641
32.588000 -41.993000 -73.396000 -0.361073 0.059082 -0.930664
32.959000 -45.406000 -74.870000 -0.574155 0.308141 -0.758548
33.341000 -48.014000 -75.600000 -0.526032 0.080923 -0.846606
33.582000 -51.602000 -76.938000 -0.357030 0.439374 -0.824306
33.602000 -54.700000 -77.359000 0.330785 -0.463483 -0.822049
34.125000 -55.033000 -74.271000 0.504862 -0.862348 -0.038341
34.378000 -55.801000 -70.523000 0.403623 -0.897051 -0.179966
34.290000 -57.040000 -67.629000 0.318700 -0.879608 -0.353158
34.061000 -58.341000 -64.463000 0.155684 -0.979128 -0.130654
34.778000 -58.983000 -61.335000 0.491367 -0.870191 -0.036420
34.569000 -58.698000 -58.219000 0.458036 -0.626464 0.630671
34.362000 -55.106000 -57.182000 -0.127861 0.200211 0.971374
34.189000 -51.836000 -57.379000 -0.139802 0.212015 0.967215
33.414000 -44.396000 -58.956000 0.043791 0.381692 0.923251
33.505000 -41.181000 -59.716000 0.029000 0.358316 0.933150
33.417000 -38.627000 -60.988000 -0.043204 0.844713 0.533472
33.111000 -35.286000 -62.609000 0.133777 0.500735 0.855201
32.639000 -32.155000 -63.418000 0.819725 0.568054 0.073257
33.392000 -34.972000 -67.494000 0.457863 0.311025 -0.832841
33.514000 -37.765000 -67.936000 -0.193686 -0.240858 -0.951038
33.628000 -39.973000 -69.124000 0.420816 0.868778 0.261034
33.754000 -38.560000 -71.914000 0.288896 0.879747 -0.377604
33.921000 -40.974000 -73.501000 -0.373893 0.170321 -0.911699
34.320000 -44.495000 -75.221000 -0.493537 0.418873 -0.762212
34.478000 -48.374000 -76.197000 -0.361030 0.177276 -0.915549
34.636000 -51.977000 -77.278000 -0.268758 0.144450 -0.952315
34.927000 -54.288000 -76.815000 0.433454 -0.879665 -0.195724
34.773000 -54.497000 -73.713000 0.596580 -0.775378 -0.207078
34.879000 -55.486000 -70.635000 0.314596 -0.892036 -0.324501
34.861000 -56.911000 -67.534000 0.142116 -0.890177 -0.432883
35.102000 -58.032000 -64.686000 0.189261 -0.978383 -0.083345
35.359000 -58.664000 -61.197000 0.493155 -0.869353 -0.031996
35.247000 -58.047000 -58.040000 0.450436 -0.624736 0.637819
34.863000 -55.976000 -57.049000 -0.162837 0.192381 0.967716
34.678000 -52.638000 -57.243000 -0.135253 0.213375 0.967563
34.637000 -49.024000 -57.594000 -0.047248 0.289678 0.955957
34.319000 -44.065000 -59.038000 0.049335 0.391955 0.918661
34.028000 -40.540000 -59.879000 -0.051655 0.323732 0.944738
34.107000 -38.291000 -61.284000 -0.041076 0.748360 0.662019
33.853000 -34.654000 -63.047000 0.347603 0.525672 0.776428
34.194000 -34.207000 -63.685000 0.633580 0.683628 0.362256
34.976000 -37.309000 -62.017000 0.102442 0.672307 0.733150
34.729000 -39.893000 -60.104000 0.045813 0.407231 0.912175
34.929000 -43.205000 -59.253000 0.049791 0.369952 0.927716
35.287000 -46.182000 -58.436000 0.059928 0.452220 0.889891
35.503000 -49.546000 -57.435000 -0.010434 0.323856 0.946049
35.593000 -52.698000 -57.105000 -0.086861 0.242228 0.966323
35.771000 -56.082000 -56.851000 -0.148788 0.283452 0.947374
35.862000 -58.408000 -59.360000 0.424836 -0.819053 0.385573
36.118000 -57.870000 -63.438000 0.356893 -0.934090 -0.010146
36.320000 -57.251000 -66.342000 0.057810 -0.962031 -0.266747
36.142000 -55.726000 -69.497000 0.164748 -0.866140 -0.471868
35.774000 -54.238000 -72.168000 0.647471 -0.694793 -0.313120
35.726000 -53.482000 -73.862000 0.675615 -0.724431 -0.136909
35.864000 -53.401000 -77.171000 0.531133 -0.818329 -0.219624
35.395000 -53.723000 -74.285000 0.691439 -0.713569 -0.112829
35.579000 -53.226000 -77.688000 0.240882 -0.374361 -0.895449
35.327000 -50.085000 -76.872000 -0.030848 0.151495 -0.987976
35.067000 -47.338000 -76.059000 -0.396386 0.093593 -0.913301
34.771000 -44.111000 -75.175000 -0.273667 0.048488 -0.960601
34.621000 -40.767000 -73.733000 -0.324279 0.240482 -0.914883
34.474000 -38.886000 -71.720000 0.625846 0.779803 0.014962
34.280000 -40.462000 -68.520000 0.386414 0.916822 -0.100602
34.340000 -37.879000 -67.887000 0.061867 -0.283196 -0.957065
34.126000 -35.437000 -67.214000 0.664598 0.536396 -0.520182
34.255000 -35.328000 -66.794000 0.738500 0.521615 -0.427242
35.108000 -38.861000 -67.716000 -0.185575 -0.274036 -0.943645
35.300000 -41.011000 -68.911000 0.663135 0.740404 -0.109786
35.697000 -41.315000 -68.900000 0.656781 0.729468 -0.191090
35.806000 -41.296000 -70.366000 0.699780 0.714105 0.019035
36.915000 -42.953000 -69.833000 0.943520 0.327919 -0.047312
37.312000 -43.347000 -68.813000 0.625936 0.170028 -0.761114
37.319000 -46.673000 -69.637000 0.989519 0.001852 -0.144392
37.738000 -49.608000 -70.443000 0.968108 -0.094386 -0.232075
37.657000 -52.819000 -69.920000 0.922297 -0.179032 -0.342514
38.213000 -55.322000 -69.299000 0.161767 -0.241335 -0.956864
37.997000 -57.015000 -66.616000 0.052683 -0.982202 -0.180291
38.118000 -57.011000 -63.643000 0.156837 -0.980357 0.119588
37.308000 -57.366000 -60.341000 0.621066 -0.781829 0.054958
36.726000 -57.879000 -59.428000 0.555377 -0.822579 0.122146
36.659000 -57.631000 -62.979000 0.428610 -0.900741 0.070418
36.744000 -57.223000 -66.243000 -0.008078 -0.982587 -0.185625
37.093000 -55.727000 -69.240000 0.029176 -0.856453 -0.515400
36.873000 -52.795000 -71.523000 0.695240 -0.603974 -0.389688
37.130000 -50.627000 -73.160000 0.970378 -0.238163 -0.040569
37.013000 -51.024000 -74.043000 0.887883 -0.459652 0.019599
37.678000 -50.747000 -76.732000 0.885019 -0.401035 0.236457
37.752000 -47.446000 -74.261000 0.949322 0.127899 0.287105
37.448000 -44.891000 -73.911000 0.934040 -0.013042 0.356930
37.389000 -42.416000 -73.616000 0.939211 0.076578 0.334691
36.988000 -42.895000 -71.215000 0.914785 0.401736 0.042141
37.417000 -45.819000 -70.748000 0.973700 -0.192107 0.122489
37.570000 -48.995000 -70.918000 0.985051 0.088108 -0.148028
37.346000 -52.529000 -71.098000 0.831627 -0.312662 -0.458954
37.481000 -52.397000 -70.894000 0.895389 -0.312531 -0.317178
37.398000 -48.677000 -72.036000 0.993303 -0.006846 -0.115334
37.277000 -50.077000 -73.609000 0.950379 -0.279506 0.136588
37.511000 -47.276000 -73.388000 0.991931 -0.087635 0.091609
37.175000 -44.274000 -73.066000 0.960331 0.274104 -0.051296
37.240000 -43.485000 -71.649000 0.974936 0.222316 0.008726
37.520000 -46.834000 -72.333000 0.998560 -0.046715 -0.026366
37.505000 -47.256000 -71.472000 0.998091 -0.042604 0.044707
37.541000 -44.583000 -71.407000 0.984723 0.009047 -0.173893
37.513000 -46.673000 -71.907000 0.999549 -0.022319 0.020077
37.437000 -45.367000 -72.250000 0.989119 -0.055232 -0.136356
37.044000 -43.582000 -72.941000 0.978336 -0.159122 -0.132431
37.345000 -44.454000 -72.192000 0.936433 0.084851 -0.340432
37.465000 -47.856000 -73.208000 0.987505 -0.046635 0.150530
37.627000 -50.287000 -75.666000 0.903936 -0.372786 0.209595
37.383000 -49.219000 -72.486000 0.997731 -0.035103 -0.057453
37.501000 -49.427000 -71.768000 0.980861 -0.012331 -0.194316
37.577000 -49.461000 -71.273000 0.984317 0.022360 -0.174984
37.406000 -47.312000 -70.336000 0.994808 0.076081 0.067588
37.418000 -45.964000 -70.918000 0.968373 -0.225229 0.107357
37.089000 -43.418000 -69.367000 0.951352 0.254727 -0.173331
36.979000 -43.076000 -70.216000 0.969019 0.242062 -0.049073
36.273000 -40.630000 -73.120000 0.769631 0.633390 -0.080525
36.096000 -40.469000 -73.373000 0.676545 0.721105 -0.149313
35.419000 -40.314000 -71.359000 0.862970 0.450772 0.228226
35.486000 -40.777000 -74.061000 -0.252641 0.231284 -0.939511
35.538000 -44.247000 -75.368000 -0.319981 0.224170 -0.920522
36.010000 -48.023000 -76.500000 -0.426018 0.107645 -0.898288
36.400000 -51.888000 -77.616000 -0.359523 0.224688 -0.905681
36.063000 -52.923000 -74.241000 0.745365 -0.664605 -0.052256
36.415000 -53.555000 -71.589000 0.829737 -0.447284 -0.333877
36.170000 -52.913000 -73.779000 0.773735 -0.631574 -0.049492
36.911000 -51.520000 -75.369000 0.888929 -0.416167 0.191338
37.109000 -51.746000 -76.998000 0.767206 -0.632857 0.104340
36.685000 -48.172000 -76.651000 -0.312751 0.060656 -0.947896
36.582000 -44.936000 -75.834000 -0.069674 0.333627 -0.940127
36.123000 -41.756000 -74.671000 -0.331767 0.317360 -0.888376
37.023000 -43.382000 -75.446000 -0.400802 0.327319 -0.855698
37.524000 -46.084000 -76.342000 -0.140984 0.283321 -0.948606
37.753000 -49.111000 -77.165000 -0.426448 0.144906 -0.892830
38.322000 -48.925000 -76.975000 0.505059 -0.215343 -0.835788
38.168000 -45.581000 -76.389000 -0.214742 0.352028 -0.911023
37.589000 -42.748000 -75.408000 0.779027 0.351946 -0.518895
38.212000 -48.588000 -75.812000 0.903035 -0.080377 0.421981
38.472000 -47.477000 -76.027000 0.950412 -0.294427 0.100146
38.560000 -45.407000 -75.702000 0.976548 0.035227 0.212400
38.379000 -44.743000 -75.219000 0.918966 0.110622 0.378503
38.585000 -46.822000 -75.934000 0.939946 -0.198180 0.277895
38.319000 -48.458000 -76.051000 0.939212 -0.075568 0.334920
38.200000 -46.646000 -75.066000 0.752131 -0.099452 0.651467
37.839000 -45.242000 -74.549000 0.646979 0.084151 0.757850
37.741000 -44.315000 -74.306000 0.709609 0.081262 0.699894
37.169000 -41.822000 -74.321000 0.820343 0.548410 -0.162124
38.321000 -44.621000 -75.849000 0.764224 0.337128 -0.549823
37.719000 -47.431000 -76.754000 -0.298391 0.315694 -0.900722
37.862000 -49.197000 -77.183000 0.217165 0.039150 -0.975350
37.660000 -44.684000 -75.994000 -0.275341 -0.117596 -0.954127
37.185000 -41.961000 -74.692000 0.839312 0.280398 -0.465759
36.134000 -43.142000 -75.108000 -0.019586 0.009886 -0.999759
36.120000 -44.812000 -75.723000 -0.121038 0.338106 -0.933292
37.112000 -47.084000 -76.544000 -0.171495 0.201400 -0.964379
36.549000 -48.699000 -76.740000 -0.081570 0.160092 -0.983726
36.724000 -51.051000 -77.480000 -0.378979 0.150958 -0.913010
36.796000 -51.976000 -75.656000 0.842677 -0.428722 0.325720
36.564000 -52.569000 -77.200000 0.740410 -0.592471 -0.317444
35.680000 -49.707000 -76.836000 -0.216991 0.008486 -0.976137
36.378000 -46.868000 -76.341000 -0.299400 0.223787 -0.927512
35.896000 -43.216000 -75.113000 -0.039966 0.104012 -0.993773
35.300000 -39.792000 -72.624000 0.729568 0.666364 -0.153913
35.094000 -40.140000 -70.780000 0.850352 0.446473 0.278502
35.247000 -40.528000 -70.565000 0.856379 0.476542 0.198804
36.686000 -41.152000 -73.701000 0.865249 0.499795 -0.039350
36.829000 -42.385000 -71.877000 0.825405 0.559559 0.074836
37.326000 -42.014000 -73.973000 0.832197 0.553327 -0.035739
37.403000 -45.301000 -73.726000 0.999485 -0.020999 -0.024245
37.656000 -48.022000 -73.928000 0.935407 -0.049616 0.350075
38.022000 -49.328000 -75.727000 0.865994 -0.245241 0.435789
37.565000 -50.568000 -75.994000 0.865123 -0.456174 0.208490
37.365000 -50.354000 -74.567000 0.896416 -0.374549 0.236964
36.462000 -52.483000 -73.975000 0.711433 -0.702247 -0.026678
37.273000 -50.518000 -72.412000 0.936899 -0.270468 -0.221512
36.484000 -52.540000 -72.947000 0.844632 -0.520260 -0.126195
36.723000 -53.006000 -71.542000 0.701960 -0.590150 -0.398717
36.854000 -54.435000 -70.436000 0.505141 -0.491353 -0.709510
37.199000 -56.290000 -68.403000 0.027708 -0.907076 -0.420054
37.502000 -57.188000 -66.174000 0.001741 -0.999634 -0.026993
37.267000 -57.303000 -63.188000 0.341258 -0.939274 0.036165
36.312000 -57.962000 -61.525000 0.441567 -0.897123 -0.013770
36.710000 -57.233000 -58.152000 0.337449 -0.702693 0.626379
36.387000 -54.752000 -56.818000 -0.090377 0.260326 0.961282
36.142000 -51.857000 -57.117000 -0.085593 0.241783 0.966548
35.930000 -48.558000 -57.712000 0.090186 0.445065 0.890945
36.034000 -45.322000 -58.726000 0.046625 0.384483 0.921954
35.799000 -42.151000 -59.534000 0.030844 0.514336 0.857034
35.702000 -38.927000 -60.445000 0.224084 0.556071 0.800357
35.375000 -36.423000 -62.580000 0.236451 0.621765 0.746658
35.099000 -35.833000 -65.803000 0.752202 0.440054 -0.490454
35.557000 -37.795000 -67.491000 0.553994 0.047771 -0.831149
35.950000 -40.556000 -67.798000 0.033482 0.013318 -0.999351
37.762000 -42.798000 -68.390000 0.188923 0.121179 -0.974486
37.614000 -47.985000 -68.688000 0.987148 0.159249 0.013365
38.293000 -50.942000 -68.690000 0.867057 0.176164 -0.466024
38.317000 -54.133000 -69.214000 0.567160 -0.088509 -0.818838
38.851000 -56.458000 -67.913000 0.087831 -0.954320 -0.285585
38.907000 -56.736000 -64.611000 0.361034 -0.928934 0.082075
38.507000 -56.629000 -61.128000 0.380993 -0.839439 0.387539
38.112000 -55.778000 -57.220000 0.500107 -0.683562 0.531636
38.084000 -52.892000 -56.739000 -0.151374 0.275041 0.949441
37.883000 -49.221000 -57.544000 0.052929 0.422352 0.904885
37.638000 -46.465000 -58.387000 0.073331 0.463554 0.883029
37.522000 -42.687000 -59.361000 -0.014172 0.458877 0.888387
37.277000 -39.777000 -60.199000 0.093530 0.542616 0.834757
36.870000 -36.821000 -63.119000 0.658257 0.722878 0.210110
36.847000 -38.177000 -66.283000 0.686376 0.542307 -0.484552
36.974000 -40.405000 -67.711000 0.007919 0.024673 -0.999664
38.465000 -42.476000 -68.270000 -0.070871 -0.011838 -0.997415
38.415000 -45.517000 -67.197000 0.486430 -0.716405 -0.500151
38.309000 -48.783000 -65.117000 0.952322 0.158916 -0.260440
38.366000 -49.465000 -65.925000 0.945497 0.192405 -0.262709
37.921000 -47.309000 -66.318000 0.873298 -0.399301 -0.279122
37.664000 -46.962000 -67.626000 0.964077 -0.198492 -0.176514
38.315000 -50.225000 -68.197000 0.912130 0.214850 -0.349082
39.516000 -55.433000 -69.179000 -0.024156 -0.464528 -0.885229
39.467000 -56.659000 -65.901000 0.254147 -0.940305 0.226355
39.442000 -56.400000 -62.283000 0.459350 -0.859173 0.225434
39.280000 -55.833000 -59.688000 0.428266 -0.814984 0.390372
38.735000 -55.401000 -57.502000 0.574974 -0.576052 0.581007
38.593000 -52.224000 -56.728000 -0.145920 0.274627 0.950414
38.352000 -49.013000 -57.602000 0.035459 0.402304 0.914819
38.420000 -45.584000 -58.676000 0.062949 0.448826 0.891399
38.138000 -42.906000 -59.338000 0.149997 0.421236 0.894461
37.830000 -39.754000 -60.821000 0.623099 0.779867 0.059628
38.835000 -41.471000 -60.396000 0.997604 -0.002150 0.069144
39.065000 -47.535000 -60.861000 0.981109 0.078232 -0.176931
39.516000 -50.245000 -62.212000 0.793374 0.467312 -0.390099
39.458000 -51.472000 -65.528000 0.727682 0.681935 -0.073779
39.424000 -51.911000 -68.127000 0.473373 0.508966 -0.718938
40.478000 -54.139000 -69.143000 -0.121894 -0.022854 -0.992280
40.455000 -56.419000 -67.279000 0.179349 -0.983071 0.037493
40.185000 -56.350000 -64.229000 0.181985 -0.976665 0.114046
40.216000 -55.668000 -61.153000 0.442160 -0.759270 0.477498
39.694000 -54.972000 -58.325000 0.726387 -0.523850 0.444909
39.458000 -51.719000 -56.749000 0.144068 0.461439 0.875396
38.966000 -48.539000 -57.699000 -0.000898 0.379302 0.925272
38.874000 -45.059000 -58.831000 0.116178 0.458062 0.881296
38.743000 -42.146000 -59.610000 -0.103899 0.250159 0.962614
39.390000 -43.933000 -59.593000 0.559959 -0.307492 -0.769347
39.473000 -46.140000 -59.488000 0.779632 -0.068492 -0.622481
39.626000 -48.793000 -59.959000 0.946465 0.197821 -0.255090
39.916000 -50.684000 -61.867000 0.840023 0.402243 -0.364091
40.422000 -52.096000 -65.631000 0.353026 0.904963 -0.237519
40.156000 -52.130000 -67.419000 0.594206 0.688562 -0.415695
40.737000 -53.265000 -68.953000 -0.076073 0.227127 -0.970890
41.194000 -55.879000 -68.941000 -0.191979 -0.890414 -0.412682
41.125000 -56.186000 -65.272000 0.067949 -0.984931 0.159042
41.004000 -55.683000 -62.339000 0.286559 -0.884616 0.367883
40.611000 -54.528000 -59.705000 0.773528 -0.460495 0.435429
40.281000 -53.846000 -58.122000 0.802045 -0.420639 0.424013
40.026000 -52.918000 -56.842000 0.620518 -0.387893 0.681540
39.899000 -49.492000 -57.334000 0.062814 0.541903 0.838090
39.894000 -46.104000 -58.391000 -0.007945 0.290755 0.956765
39.825000 -46.439000 -59.138000 0.688550 -0.082156 -0.720520
40.129000 -49.501000 -59.219000 0.814640 0.217886 -0.537482
40.362000 -51.422000 -61.889000 0.847892 0.442220 -0.292439
40.840000 -52.287000 -60.021000 0.960089 0.275402 -0.048816
41.492000 -54.678000 -60.993000 0.518178 -0.501973 0.692470
41.752000 -56.035000 -64.425000 0.169702 -0.931696 0.321160
41.821000 -56.290000 -67.854000 -0.035964 -0.989778 0.138006
41.783000 -54.182000 -69.362000 -0.332530 -0.139708 -0.932687
41.756000 -52.377000 -67.403000 -0.129476 0.944449 -0.302081
41.693000 -52.142000 -64.006000 0.220961 0.946606 -0.234761
41.809000 -52.741000 -61.509000 0.502606 0.680364 0.533378
42.336000 -55.205000 -62.360000 0.178352 -0.905639 0.384720
42.673000 -56.037000 -65.316000 0.143343 -0.938128 0.315229
42.920000 -56.315000 -68.857000 -0.336458 -0.941610 -0.012905
42.617000 -53.413000 -69.650000 -0.422199 -0.050128 -0.905116
42.621000 -51.749000 -67.271000 -0.630355 0.770801 -0.092293
42.167000 -52.131000 -64.363000 -0.215754 0.965352 -0.146784
42.424000 -52.894000 -61.821000 0.343928 0.731136 0.589198
43.281000 -55.166000 -63.239000 0.309455 -0.789011 0.530754
43.219000 -56.160000 -66.511000 0.007137 -0.968171 0.250188
43.635000 -55.615000 -69.980000 -0.565602 -0.240620 -0.788794
43.255000 -52.072000 -69.902000 -0.756302 -0.014513 -0.654061
43.438000 -50.818000 -67.520000 -0.769218 0.637279 -0.046675
43.043000 -51.651000 -64.885000 -0.575122 0.815115 -0.069443
43.339000 -52.506000 -62.333000 0.209162 0.540819 0.814718
43.875000 -55.543000 -64.526000 0.156955 -0.813083 0.560591
44.113000 -56.373000 -67.670000 0.000064 -0.946760 0.321941
44.863000 -56.169000 -70.827000 -0.561081 -0.741074 -0.368778
45.046000 -56.411000 -68.246000 -0.000924 -0.970305 0.241883
44.761000 -55.444000 -64.880000 0.304976 -0.775698 0.552524
44.767000 -52.198000 -62.794000 0.356298 0.245086 0.901657
44.527000 -49.497000 -64.069000 -0.696856 0.199471 0.688914
44.116000 -45.894000 -62.385000 -0.548264 -0.296130 0.782121
43.769000 -43.045000 -62.632000 0.649435 0.753989 -0.098663
44.182000 -44.285000 -65.873000 0.666842 0.671710 -0.322687
43.875000 -44.874000 -68.836000 0.549770 0.658965 -0.513341
44.303000 -47.247000 -70.298000 -0.222288 0.261972 -0.939126
44.348000 -50.562000 -71.261000 -0.916767 -0.033956 -0.397978
44.767000 -53.328000 -71.822000 -0.931464 -0.273187 -0.240298
45.747000 -56.549000 -71.076000 -0.507878 -0.859925 0.050885
45.515000 -55.652000 -72.502000 -0.914753 -0.267032 -0.303184
45.412000 -51.057000 -72.579000 -0.323035 0.368454 -0.871717
44.850000 -48.309000 -70.764000 0.184945 0.429070 -0.884135
44.707000 -45.181000 -68.163000 0.634039 0.652782 -0.414572
45.342000 -45.194000 -66.218000 0.587901 0.740816 -0.324907
46.145000 -47.039000 -69.186000 0.492868 0.431290 -0.755692
46.160000 -49.428000 -70.977000 0.520795 0.563185 -0.641557
46.400000 -52.158000 -73.567000 0.152129 0.735831 -0.659855
46.658000 -55.175000 -74.618000 -0.403663 -0.687386 -0.603786
46.675000 -56.792000 -71.860000 -0.223869 -0.969218 0.102470
46.707000 -56.260000 -68.705000 0.118830 -0.913309 0.389545
46.401000 -55.029000 -65.618000 0.416845 -0.677501 0.605997
46.064000 -50.662000 -63.004000 -0.198885 -0.321999 0.925614
46.132000 -50.421000 -64.341000 0.315641 0.642411 -0.698340
46.399000 -53.128000 -66.473000 -0.515266 0.768559 -0.379234
46.888000 -53.420000 -69.021000 0.055638 0.919885 -0.388221
46.706000 -52.182000 -70.539000 -0.429972 -0.596609 0.677629
46.465000 -50.128000 -68.508000 -0.130213 -0.598107 0.790767
46.465000 -47.883000 -65.222000 -0.307555 -0.852434 0.422807
46.377000 -47.641000 -61.902000 -0.528972 -0.818920 0.222619
45.880000 -44.648000 -62.817000 0.530949 0.840555 0.107516
46.209000 -45.692000 -65.975000 0.540669 0.784694 -0.303204
45.216000 -44.245000 -63.395000 0.506498 0.773946 -0.380088
45.492000 -46.440000 -61.633000 -0.488706 0.015399 0.872313
45.435000 -49.229000 -63.686000 0.859033 0.031541 0.510948
45.416000 -50.544000 -64.728000 0.622739 0.119393 -0.773266
45.582000 -53.126000 -65.598000 -0.354437 0.637501 -0.684081
45.636000 -53.428000 -68.665000 0.056556 0.991770 -0.114862
45.378000 -51.951000 -70.393000 0.323303 -0.445318 0.834965
45.311000 -50.121000 -68.071000 0.621311 -0.666669 0.411735
45.361000 -48.017000 -66.373000 0.416303 -0.811700 0.409676
45.209000 -49.667000 -64.726000 0.807070 -0.326694 -0.491843
44.717000 -51.738000 -64.898000 0.412324 -0.522241 -0.746494
44.692000 -53.636000 -66.332000 -0.101656 0.969598 -0.222589
44.343000 -51.621000 -68.086000 0.934356 -0.353181 -0.047340
44.780000 -53.107000 -69.522000 0.723927 0.625546 0.290899
44.728000 -53.492000 -68.461000 0.311343 0.929668 -0.196936
45.022000 -52.399000 -70.422000 0.282551 0.529548 0.799840
44.631000 -51.126000 -68.787000 0.700347 -0.601963 0.383608
45.100000 -49.197000 -67.206000 0.758346 -0.153388 0.633549
44.597000 -49.522000 -66.512000 0.741243 -0.239843 0.626924
44.081000 -52.087000 -65.374000 0.875482 -0.483248 -0.001574
43.993000 -53.635000 -66.264000 0.127535 0.991762 -0.011975
43.931000 -53.129000 -65.101000 0.638070 0.517100 -0.570504
43.928000 -52.893000 -66.426000 0.800952 -0.364904 0.474680
44.470000 -51.763000 -67.251000 0.981350 -0.146619 -0.124319
44.180000 -50.836000 -66.107000 0.920644 0.371403 0.120312
43.441000 -46.215000 -63.542000 -0.631768 -0.596673 0.494823
43.365000 -43.748000 -61.783000 0.002838 0.021989 0.999754
43.380000 -43.131000 -64.007000 0.676007 0.616779 -0.403235
42.804000 -43.387000 -67.233000 0.616918 0.708395 -0.342911
42.885000 -45.393000 -69.296000 -0.331082 -0.170591 -0.928054
42.843000 -46.561000 -68.642000 -0.820534 -0.519704 -0.237976
42.569000 -46.390000 -66.688000 -0.808919 -0.536159 0.241212
43.605000 -47.866000 -66.992000 -0.855709 -0.450076 0.255332
43.300000 -47.521000 -68.066000 -0.892051 -0.445034 0.078677
43.614000 -50.462000 -68.784000 -0.916111 0.400909 -0.003566
43.483000 -47.866000 -69.258000 -0.965016 -0.262081 -0.007583
43.892000 -50.287000 -70.221000 -0.945785 -0.006980 -0.324717
43.972000 -54.092000 -70.422000 -0.654339 -0.127706 -0.745340
44.266000 -53.833000 -70.711000 -0.733792 -0.224491 -0.641213
44.361000 -51.810000 -70.813000 -0.976320 -0.040611 -0.212486
43.996000 -49.063000 -70.547000 -0.929251 -0.020224 -0.368895
44.352000 -52.465000 -70.812000 -0.927112 0.372107 -0.044717
44.002000 -53.461000 -70.520000 -0.668243 -0.180695 -0.721665
43.647000 -47.463000 -69.952000 -0.908825 -0.066987 -0.411765
43.778000 -49.388000 -69.574000 -0.995982 0.060682 -0.065854
44.100000 -49.411000 -66.759000 -0.980520 0.166603 0.104035
44.144000 -49.169000 -66.244000 -0.948294 -0.175876 0.264207
43.802000 -48.374000 -68.051000 -0.932818 -0.211824 0.291516
43.496000 -50.952000 -66.386000 -0.775127 0.626492 0.081764
43.751000 -51.191000 -63.735000 -0.502118 0.789386 0.353196
44.186000 -48.329000 -64.746000 -0.956502 -0.170099 0.237004
44.157000 -50.360000 -64.179000 -0.582360 0.692321 0.426084
44.038000 -49.309000 -67.606000 -0.944808 0.308058 0.111525
43.628000 -48.338000 -68.885000 -0.965919 -0.236294 0.105669
43.712000 -47.963000 -66.500000 -0.926049 -0.293748 0.236949
43.755000 -47.494000 -65.282000 -0.807877 -0.496089 0.318167
42.529000 -45.122000 -62.698000 -0.313155 -0.589843 0.744324
42.399000 -42.124000 -62.255000 0.604834 0.664764 0.438481
42.053000 -42.412000 -64.791000 0.647453 0.721398 -0.245744
41.566000 -41.469000 -62.783000 0.560666 0.820581 -0.110904
41.499000 -43.243000 -61.674000 0.114990 0.044929 0.992350
42.036000 -45.541000 -63.800000 -0.419359 -0.723799 0.547953
41.319000 -45.295000 -63.625000 -0.095955 -0.878290 0.468401
40.758000 -43.202000 -61.527000 0.255732 0.000706 0.966747
40.911000 -41.249000 -64.036000 0.594831 0.702703 -0.390365
41.084000 -42.072000 -67.501000 0.564742 0.689978 -0.452765
41.246000 -44.589000 -68.755000 -0.554550 -0.464398 -0.690513
41.303000 -45.560000 -65.220000 -0.396132 -0.917439 0.037213
40.270000 -45.290000 -63.250000 0.304110 -0.819292 0.486084
39.936000 -42.666000 -61.234000 0.395121 0.072270 0.915782
39.871000 -40.362000 -63.159000 0.744945 0.654907 -0.127098
38.877000 -41.145000 -60.875000 0.550851 0.496700 0.670710
38.771000 -39.065000 -62.879000 0.828652 0.557736 -0.047607
38.927000 -40.202000 -66.158000 0.599753 0.678839 -0.423644
39.203000 -42.308000 -68.284000 -0.094409 0.104506 -0.990033
39.393000 -44.932000 -67.352000 -0.024915 -0.844329 -0.535246
39.317000 -46.120000 -64.225000 0.745173 -0.653449 0.133120
38.948000 -49.838000 -62.973000 0.832499 0.455636 -0.315185
39.069000 -50.650000 -64.522000 0.946249 0.258297 -0.194666
38.353000 -48.514000 -63.845000 0.994110 -0.088788 -0.062144
38.744000 -46.911000 -64.584000 0.816518 -0.577320 0.000037
38.732000 -49.921000 -64.957000 0.942293 0.233285 -0.240129
38.828000 -50.598000 -66.029000 0.845538 0.522702 -0.108844
38.725000 -48.677000 -62.126000 0.940255 -0.125803 -0.316376
38.803000 -46.871000 -62.576000 0.949661 -0.306211 -0.066169
39.088000 -46.141000 -62.771000 0.787948 -0.591970 0.169438
39.479000 -44.901000 -61.622000 0.836001 -0.272461 0.476305
39.733000 -45.537000 -63.180000 0.613861 -0.677079 0.405880
39.432000 -45.702000 -65.783000 0.512704 -0.838037 -0.186624
40.160000 -44.023000 -68.386000 -0.568760 -0.407023 -0.714734
39.869000 -41.358000 -67.396000 0.417551 0.738861 -0.528901
40.320000 -41.485000 -67.064000 0.478129 0.810085 -0.339347
40.500000 -40.948000 -63.972000 0.630876 0.699246 -0.336229
39.643000 -40.296000 -64.303000 0.730758 0.624244 -0.276247
39.889000 -40.546000 -64.372000 0.704529 0.647139 -0.291290
39.462000 -41.057000 -67.183000 0.514607 0.739525 -0.433915
40.501000 -43.394000 -68.739000 -0.286371 -0.035191 -0.957472
40.137000 -43.708000 -68.486000 -0.537973 -0.341638 -0.770629
40.273000 -45.286000 -66.351000 -0.015914 -0.999872 -0.001626
38.803000 -47.524000 -61.990000 0.969604 -0.152726 -0.191164
38.884000 -49.472000 -62.488000 0.868387 0.378320 -0.320591
38.497000 -48.081000 -63.146000 0.950552 -0.199031 -0.238406
38.989000 -46.528000 -63.965000 0.834321 -0.537507 0.122455
38.745000 -46.103000 -66.131000 0.568049 -0.723879 -0.391560
39.638000 -44.944000 -67.277000 0.019654 -0.919102 -0.393528
39.481000 -43.254000 -68.344000 -0.345513 -0.261827 -0.901148
38.376000 -40.805000 -67.592000 0.326596 0.484837 -0.811338
38.185000 -39.200000 -65.340000 0.745345 0.593186 -0.304289
38.066000 -38.278000 -64.042000 0.803514 0.416588 -0.425229
37.928000 -38.661000 -62.022000 0.535767 0.688985 0.488112
37.664000 -37.839000 -64.089000 0.689753 0.533901 -0.489071
37.493000 -39.125000 -66.622000 0.674567 0.414486 -0.610869
37.647000 -37.589000 -63.070000 0.765324 0.641922 0.047064
38.321000 -38.400000 -63.563000 0.830030 0.494722 -0.257489
37.522000 -38.682000 -65.757000 0.711009 0.568626 -0.413680
37.808000 -39.851000 -67.082000 0.486014 0.472830 -0.734998
39.218000 -40.577000 -66.545000 0.611063 0.638552 -0.467818
39.218000 -39.862000 -64.254000 0.733516 0.589583 -0.338152
38.546000 -38.734000 -62.843000 0.876129 0.481829 0.015455
39.025000 -39.414000 -62.752000 0.788222 0.603212 0.121828
39.398000 -40.526000 -61.727000 0.597580 0.622089 0.505870
39.756000 -42.533000 -61.133000 0.554902 0.064441 0.829416
39.931000 -44.398000 -61.767000 0.602776 -0.445825 0.661741
40.105000 -45.528000 -64.795000 0.363834 -0.920549 0.142180
42.266000 -46.089000 -67.147000 -0.713264 -0.685407 0.146530
41.957000 -44.905000 -69.005000 -0.367091 -0.498467 -0.785350
41.710000 -42.507000 -66.882000 0.684228 0.707273 -0.177755
42.332000 -42.741000 -65.583000 0.600867 0.755239 -0.261863
42.784000 -43.027000 -65.376000 0.641801 0.722576 -0.256856
41.327000 -42.206000 -67.262000 0.689844 0.688629 -0.223396
41.628000 -44.852000 -68.863000 -0.494000 -0.473621 -0.729141
41.550000 -45.503000 -67.095000 -0.652271 -0.754894 0.068395
41.202000 -45.110000 -68.063000 -0.562829 -0.804919 -0.187960
40.919000 -43.412000 -68.797000 -0.142937 -0.036519 -0.989058
40.652000 -41.851000 -67.649000 0.539731 0.704171 -0.461340
40.808000 -41.699000 -65.835000 0.647626 0.733624 -0.205856
40.922000 -41.139000 -62.701000 0.524354 0.851201 0.022578
40.500000 -41.697000 -61.560000 0.426095 0.508820 0.748027
40.821000 -44.687000 -62.424000 0.041773 -0.740909 0.670305
41.135000 -45.484000 -65.049000 -0.246438 -0.963232 0.107017
41.430000 -45.355000 -63.760000 -0.171828 -0.874128 0.454285
41.151000 -43.582000 -61.667000 0.128658 -0.000516 0.991689
41.233000 -41.344000 -63.547000 0.646397 0.686522 -0.332954
41.500000 -42.175000 -65.658000 0.622144 0.709178 -0.331668
42.490000 -42.135000 -63.047000 0.692854 0.658628 -0.293535
42.276000 -44.307000 -62.067000 -0.034341 -0.429237 0.902539
42.489000 -45.812000 -63.916000 -0.409002 -0.754558 0.513187
43.089000 -46.589000 -65.279000 -0.748653 -0.579427 0.322153
42.791000 -46.774000 -67.668000 -0.835676 -0.538628 0.107355
43.312000 -47.293000 -69.236000 -0.974242 -0.190558 -0.120582
42.330000 -44.936000 -69.162000 -0.167804 -0.052986 -0.984395
43.364000 -43.756000 -67.143000 0.678569 0.697573 -0.230078
43.346000 -43.815000 -67.460000 0.629935 0.709344 -0.316249
42.624000 -43.098000 -66.348000 0.618613 0.725819 -0.300840
43.078000 -43.161000 -64.807000 0.687515 0.666745 -0.287706
43.537000 -42.896000 -62.974000 0.642768 0.700191 -0.310777
42.837000 -43.672000 -61.785000 -0.045252 -0.039305 0.998202
43.356000 -45.860000 -63.042000 -0.514044 -0.638561 0.572711
43.820000 -47.475000 -64.988000 -0.849986 -0.429336 0.305277
44.075000 -48.739000 -65.987000 -0.937339 -0.185215 0.295113
43.921000 -50.704000 -65.642000 -0.270338 0.888182 -0.371550
44.228000 -49.723000 -66.475000 -0.540014 -0.406878 0.736773
44.792000 -50.609000 -67.577000 0.906863 -0.358353 0.221773
44.271000 -52.179000 -68.152000 0.951663 -0.306282 0.023001
44.393000 -53.457000 -66.901000 0.600915 0.634584 0.486009
45.132000 -52.406000 -64.746000 -0.400208 0.070425 -0.913714
44.915000 -49.512000 -65.139000 0.597244 -0.404951 -0.692325
45.442000 -47.809000 -64.766000 0.639367 -0.660416 -0.393777
45.264000 -49.025000 -64.890000 0.766931 -0.331734 -0.549336
45.787000 -48.268000 -66.925000 0.115742 -0.746017 0.655792
45.167000 -49.947000 -67.622000 0.633255 -0.477338 0.609210
45.197000 -51.144000 -69.465000 0.608811 -0.325644 0.723399
44.988000 -51.993000 -70.345000 0.279752 -0.306689 0.909770
45.731000 -52.573000 -70.658000 0.520480 0.420432 0.743194
45.410000 -53.423000 -69.217000 0.227267 0.958286 -0.173312
46.268000 -53.402000 -67.577000 -0.329524 0.875905 -0.352425
45.211000 -52.668000 -64.901000 -0.451186 0.470509 -0.758322
45.199000 -49.149000 -63.619000 0.037986 -0.056337 0.997689
45.190000 -53.883000 -63.397000 0.599535 -0.291867 0.745233
45.674000 -55.599000 -65.964000 0.354165 -0.780414 0.515287
45.912000 -56.419000 -68.808000 0.054316 -0.933957 0.353235
45.985000 -54.888000 -65.064000 0.446889 -0.643189 0.621770
45.572000 -53.165000 -63.414000 0.658715 -0.219170 0.719764
45.106000 -51.951000 -63.028000 0.371203 0.411900 0.832194
44.585000 -48.054000 -63.620000 -0.618001 -0.306318 0.724047
45.133000 -46.867000 -62.007000 -0.628298 -0.350960 0.694311
45.197000 -48.412000 -63.442000 -0.051219 -0.055621 0.997137
44.959000 -45.157000 -61.909000 -0.084869 0.167787 0.982163
44.302000 -43.466000 -62.539000 0.691745 0.708967 -0.137312
44.940000 -44.603000 -65.006000 0.562064 0.727302 -0.393847
45.197000 -44.380000 -63.872000 0.517245 0.764371 -0.384960
46.420000 -46.025000 -67.048000 0.550793 0.775916 -0.307541
46.684000 -45.079000 -63.701000 0.493202 0.822734 -0.282596
46.832000 -47.056000 -61.180000 -0.135517 0.062650 0.988792
47.176000 -47.676000 -63.835000 -0.435384 -0.756168 0.488519
47.182000 -48.849000 -66.789000 -0.421214 -0.662753 0.619143
47.314000 -50.997000 -69.101000 -0.146596 -0.428463 0.891588
47.442000 -53.705000 -69.980000 -0.198559 0.697012 -0.689020
47.572000 -52.275000 -66.642000 -0.283173 0.766452 -0.576511
47.281000 -50.404000 -63.602000 0.268578 0.797675 -0.539982
47.076000 -51.967000 -63.742000 0.311379 -0.471003 0.825348
47.069000 -54.302000 -65.442000 0.549030 -0.494103 0.674113
47.732000 -54.117000 -65.812000 0.447691 -0.416445 0.791294
47.493000 -51.345000 -63.214000 -0.076932 -0.621391 0.779714
48.012000 -51.313000 -65.015000 -0.029955 0.707695 -0.705883
48.255000 -53.042000 -67.985000 -0.174488 0.675742 -0.716189
48.346000 -51.778000 -68.894000 -0.723116 -0.090756 0.684738
47.907000 -49.156000 -66.479000 -0.619353 -0.628857 0.470043
48.332000 -50.259000 -67.968000 -0.494961 -0.588613 0.639179
48.628000 -52.483000 -68.716000 -0.855509 -0.163788 0.491201
49.001000 -52.001000 -66.479000 -0.066649 0.889558 -0.451934
48.971000 -50.317000 -63.665000 -0.165772 0.953593 -0.251356
48.901000 -52.129000 -64.213000 -0.003766 -0.767946 0.640504
48.910000 -54.067000 -66.441000 0.173669 -0.661069 0.729950
49.220000 -56.108000 -69.368000 0.081276 -0.709699 0.699801
49.451000 -56.707000 -72.602000 0.200403 -0.971622 -0.125657
49.321000 -54.789000 -75.262000 0.137098 -0.646440 -0.750546
49.315000 -52.418000 -73.836000 -0.120531 0.928665 -0.350790
48.893000 -50.801000 -71.025000 0.022914 0.439151 -0.898121
48.892000 -48.582000 -69.096000 0.378423 0.651025 -0.657999
49.175000 -48.336000 -67.818000 0.689184 0.655660 -0.308440
49.995000 -49.691000 -70.084000 -0.188982 0.874206 -0.447268
50.388000 -51.302000 -71.965000 -0.604451 0.482328 -0.634034
50.513000 -53.783000 -75.054000 0.387027 -0.030013 -0.921580
50.532000 -55.980000 -73.206000 0.450575 -0.824636 -0.341989
50.580000 -55.954000 -69.813000 0.304748 -0.880953 0.362010
50.252000 -54.497000 -67.263000 0.128525 -0.660328 0.739897
49.931000 -52.669000 -64.825000 0.036257 -0.786839 0.616093
49.723000 -50.032000 -61.864000 -0.179306 -0.348673 0.919933
49.565000 -47.509000 -62.038000 0.391885 0.818670 0.419768
49.725000 -47.208000 -64.697000 0.460091 0.657239 -0.596953
50.056000 -48.609000 -67.035000 0.472978 0.681423 -0.558529
50.581000 -48.227000 -65.914000 0.328248 0.808319 -0.488746
50.393000 -47.575000 -62.263000 0.195743 0.845257 0.497218
50.538000 -50.477000 -62.130000 0.120758 -0.583220 0.803288
50.905000 -52.486000 -64.783000 0.155367 -0.753635 0.638667
50.892000 -54.500000 -67.512000 0.323798 -0.643558 0.693532
51.310000 -55.778000 -70.342000 0.340696 -0.903690 0.259367
51.186000 -55.072000 -73.843000 0.549039 -0.693965 -0.465799
51.184000 -52.410000 -73.880000 0.171439 0.689193 -0.704004
50.802000 -49.896000 -71.443000 -0.346278 0.709055 -0.614274
50.795000 -49.294000 -68.047000 0.122249 0.940551 -0.316890
51.288000 -48.152000 -65.797000 -0.431676 0.594182 -0.678678
51.236000 -47.207000 -62.787000 0.156058 0.763289 0.626926
51.329000 -51.340000 -63.458000 0.416679 -0.631607 0.653798
51.710000 -52.812000 -65.817000 0.428491 -0.721485 0.543926
51.844000 -54.464000 -68.350000 0.569045 -0.621714 0.538200
51.955000 -55.372000 -71.714000 0.705478 -0.708604 0.013481
51.772000 -53.835000 -74.206000 0.702253 -0.196271 -0.684338
51.694000 -51.082000 -72.918000 -0.096683 0.363889 -0.926411
51.781000 -49.410000 -70.551000 0.153812 0.912213 -0.379749
52.436000 -48.918000 -68.353000 -0.384486 0.814526 -0.434417
52.627000 -50.008000 -71.700000 0.359434 0.715937 -0.598533
52.702000 -52.291000 -73.099000 0.590039 -0.210476 -0.779457
53.030000 -53.610000 -72.125000 0.758599 -0.471554 -0.449626
53.283000 -49.605000 -70.719000 0.078592 0.810152 -0.580928
53.067000 -48.213000 -67.594000 -0.191697 0.655282 -0.730656
52.828000 -47.249000 -64.200000 0.612859 0.783592 0.101920
52.902000 -50.327000 -63.751000 0.585980 -0.449450 0.674257
53.188000 -51.758000 -66.292000 0.641448 -0.646022 0.413763
53.440000 -53.059000 -68.425000 0.454309 -0.676918 0.579125
53.144000 -53.999000 -71.434000 0.769729 -0.618831 -0.156737
53.786000 -50.650000 -71.746000 0.469167 0.488318 -0.735817
53.908000 -48.986000 -69.079000 0.354622 0.850065 -0.389401
53.962000 -48.143000 -66.266000 0.874252 0.482087 -0.057236
53.840000 -50.008000 -65.133000 0.866544 -0.379180 0.324535
54.424000 -51.962000 -68.380000 0.778918 -0.340421 0.526688
54.763000 -51.875000 -70.020000 0.948957 -0.295479 -0.110329
54.704000 -49.820000 -68.686000 0.905688 0.408790 -0.112340
54.696000 -52.041000 -69.024000 0.900117 -0.385706 0.202532
54.853000 -51.176000 -70.071000 0.937454 -0.014444 -0.347809
54.572000 -49.747000 -67.786000 0.938855 0.076676 0.335668
54.327000 -49.808000 -66.581000 0.905240 -0.399157 0.145654
54.358000 -49.727000 -66.604000 0.978640 -0.172817 0.111347
54.559000 -49.581000 -67.962000 0.979660 0.182864 0.082630
54.926000 -50.544000 -68.855000 0.991635 0.121617 0.043229
54.738000 -50.120000 -69.554000 0.854507 0.348243 -0.385414
54.273000 -51.774000 -71.441000 0.851880 -0.216009 -0.477118
54.023000 -51.102000 -71.750000 0.767671 0.028997 -0.640188
54.694000 -52.019000 -70.191000 0.911148 -0.363167 -0.194727
53.773000 -52.637000 -68.169000 0.531984 -0.501400 0.682342
53.430000 -50.254000 -64.350000 0.755144 -0.461862 0.465233
53.617000 -47.685000 -65.537000 0.760032 0.648321 0.045066
53.665000 -49.669000 -64.438000 0.872390 -0.085456 0.481282
53.671000 -50.876000 -65.932000 0.840542 -0.517994 0.158656
53.922000 -51.677000 -67.700000 0.760765 -0.193770 0.619428
54.067000 -53.112000 -69.290000 0.612193 -0.705806 0.356451
54.350000 -51.025000 -67.832000 0.659004 -0.306341 0.686927
54.109000 -50.244000 -66.417000 0.810696 -0.549885 0.200992
53.603000 -47.974000 -64.803000 0.871098 0.451334 0.193612
53.444000 -47.491000 -66.076000 0.742494 0.633910 -0.216472
54.116000 -49.649000 -70.192000 0.691380 0.523529 -0.497907
53.542000 -52.272000 -72.326000 0.704446 -0.453225 -0.546208
53.288000 -53.642000 -71.674000 0.658237 -0.660354 -0.361466
52.593000 -54.495000 -69.487000 0.623402 -0.639326 0.450146
52.554000 -52.627000 -66.563000 0.514257 -0.539043 0.667063
52.075000 -50.939000 -63.583000 0.473320 -0.632350 0.613271
51.957000 -47.094000 -63.201000 0.412691 0.716976 0.561812
52.250000 -47.483000 -66.101000 -0.591626 0.603114 -0.535006
52.467000 -47.032000 -64.000000 0.507716 0.828224 0.237211
51.589000 -50.418000 -62.688000 0.557268 -0.360966 0.747767
52.632000 -49.742000 -63.200000 0.660640 -0.117310 0.741480
52.096000 -52.595000 -65.950000 0.543185 -0.663280 0.514791
52.314000 -53.826000 -68.045000 0.548877 -0.670570 0.499069
52.791000 -54.593000 -70.042000 0.710965 -0.616630 0.338078
53.124000 -54.165000 -69.936000 0.676980 -0.668439 0.308038
52.849000 -52.895000 -67.289000 0.644125 -0.633244 0.429075
52.768000 -51.417000 -64.913000 0.444233 -0.733101 0.514995
53.079000 -49.406000 -63.561000 0.730838 0.039873 0.681386
52.627000 -47.185000 -63.914000 0.665904 0.723189 0.183222
53.358000 -47.458000 -66.172000 0.523342 0.793146 -0.311501
53.406000 -47.994000 -67.253000 0.276155 0.745602 -0.606479
53.715000 -49.157000 -69.662000 0.084757 0.833698 -0.545677
53.213000 -52.045000 -72.747000 0.637973 -0.232768 -0.734037
53.098000 -53.296000 -72.245000 0.782602 -0.448522 -0.431697
52.620000 -54.320000 -72.254000 0.734093 -0.613571 -0.290927
52.362000 -52.741000 -73.388000 0.637784 -0.088773 -0.765083
52.790000 -50.441000 -72.178000 0.314616 0.592758 -0.741387
52.820000 -49.267000 -69.845000 -0.112192 0.923114 -0.367796
51.778000 -49.287000 -69.195000 -0.176868 0.964669 -0.195272
52.260000 -50.356000 -72.345000 0.334706 0.538751 -0.773123
51.573000 -54.101000 -74.288000 0.566871 -0.546339 -0.616580
51.793000 -55.467000 -72.077000 0.661304 -0.742473 -0.106821
52.114000 -55.228000 -70.267000 0.573400 -0.796669 0.191130
52.174000 -53.209000 -66.888000 0.393135 -0.658251 0.641990
51.809000 -50.970000 -63.396000 0.440635 -0.614283 0.654596
51.707000 -49.190000 -62.412000 0.671750 0.003060 0.740772
51.799000 -47.273000 -62.863000 0.291525 0.672576 0.680187
51.904000 -47.203000 -65.236000 -0.571246 0.698649 -0.430776
51.788000 -48.751000 -66.963000 -0.588456 0.571789 -0.571643
51.376000 -49.370000 -69.401000 -0.127031 0.984885 -0.117751
50.472000 -50.527000 -71.681000 -0.686465 0.350666 -0.637024
51.523000 -50.645000 -72.630000 -0.376306 0.337994 -0.862644
50.872000 -53.579000 -74.823000 0.478072 0.025431 -0.877952
51.618000 -54.522000 -73.867000 0.648536 -0.677667 -0.346652
51.008000 -56.199000 -71.347000 0.556029 -0.809500 0.188523
51.455000 -54.633000 -68.130000 0.452372 -0.645043 0.615857
51.204000 -52.877000 -65.514000 0.269446 -0.732329 0.625374
51.149000 -51.149000 -63.105000 0.240612 -0.685111 0.687553
50.708000 -48.215000 -61.804000 0.480386 0.510284 0.713330
50.789000 -46.938000 -63.680000 -0.010182 0.951071 -0.308805
51.153000 -48.158000 -65.687000 -0.027893 0.795856 -0.604843
50.132000 -48.514000 -66.815000 0.323761 0.728686 -0.603486
48.739000 -46.264000 -63.681000 0.561319 0.805482 -0.190052
48.390000 -47.854000 -60.782000 0.118418 0.398691 0.909408
49.408000 -49.979000 -62.726000 -0.977256 0.211958 0.006635
49.269000 -49.358000 -64.927000 -0.458649 -0.745600 0.483447
49.451000 -51.184000 -67.812000 -0.803893 -0.303012 0.511800
49.866000 -52.103000 -67.642000 -0.889520 0.220977 0.399903
49.939000 -49.681000 -64.919000 -0.460173 -0.743303 0.485532
50.046000 -50.373000 -64.003000 -0.124300 0.603778 -0.787401
50.345000 -50.714000 -65.520000 -0.702950 0.427410 0.568492
50.490000 -50.304000 -64.181000 -0.404428 0.417067 -0.813937
50.305000 -51.151000 -65.219000 -0.922640 0.348088 -0.166039
50.287000 -50.568000 -64.293000 -0.445558 0.518740 -0.729648
49.543000 -50.120000 -63.508000 -0.190513 0.913992 -0.358223
50.182000 -50.322000 -65.599000 -0.596058 -0.433323 0.675978
49.471000 -50.612000 -67.003000 -0.715952 -0.585737 0.379902
48.790000 -49.322000 -65.430000 -0.490402 -0.737416 0.464460
48.241000 -48.134000 -62.980000 -0.596891 -0.778936 0.192304
47.640000 -47.037000 -61.179000 0.087273 0.662992 0.743522
48.525000 -47.178000 -61.525000 0.561298 0.798948 0.215933
48.103000 -46.298000 -64.763000 0.425591 0.787043 -0.446582
47.833000 -47.019000 -66.986000 0.710718 0.634758 -0.303253
47.581000 -46.480000 -66.224000 0.562255 0.719092 -0.408382
47.575000 -48.199000 -69.532000 0.350407 0.434185 -0.829879
47.910000 -50.852000 -71.127000 0.105262 0.515466 -0.850420
48.091000 -52.846000 -74.537000 -0.038648 0.854306 -0.518332
48.452000 -55.644000 -74.699000 -0.150584 -0.791988 -0.591675
48.352000 -56.888000 -72.406000 -0.192336 -0.976085 -0.101322
48.080000 -56.029000 -68.981000 0.125262 -0.732796 0.668820
48.369000 -54.311000 -66.424000 0.460268 -0.588973 0.664277
47.247000 -56.118000 -68.675000 0.223906 -0.873110 0.433065
47.707000 -56.859000 -72.178000 -0.112398 -0.992925 -0.038304
47.385000 -55.080000 -75.016000 -0.241477 -0.694007 -0.678265
47.306000 -52.534000 -73.907000 0.194695 0.774969 -0.601263
47.130000 -50.546000 -71.198000 0.556821 0.436218 -0.706869
46.738000 -47.707000 -69.447000 0.268032 0.449893 -0.851913
46.705000 -46.348000 -67.661000 0.591557 0.668378 -0.450921
47.212000 -48.567000 -69.840000 0.207482 0.263235 -0.942156
47.569000 -52.033000 -72.717000 0.288024 0.777910 -0.558478
48.527000 -54.748000 -67.085000 0.283989 -0.740669 0.608900
47.530000 -56.063000 -68.806000 0.366953 -0.802525 0.470424
47.864000 -56.677000 -70.119000 -0.156007 -0.865494 0.476006
47.939000 -56.957000 -71.643000 -0.224998 -0.967053 0.119098
48.552000 -56.541000 -73.413000 -0.052978 -0.955316 -0.290800
48.048000 -55.751000 -74.527000 -0.170610 -0.841381 -0.512806
47.720000 -54.522000 -75.402000 -0.207889 -0.455634 -0.865552
48.609000 -52.803000 -74.575000 -0.105402 0.786294 -0.608796
47.768000 -52.222000 -73.075000 0.149948 0.876859 -0.456764
48.295000 -51.156000 -71.381000 0.106253 0.607215 -0.787401
47.329000 -49.921000 -70.570000 0.329297 0.363273 -0.871548
48.196000 -48.334000 -69.269000 0.362219 0.541593 -0.758600
47.853000 -47.527000 -68.426000 0.620328 0.608063 -0.495432
47.445000 -46.597000 -66.780000 0.586982 0.723590 -0.363140
47.501000 -45.567000 -63.676000 0.580605 0.774758 -0.250297
47.723000 -45.995000 -62.522000 0.572784 0.775247 0.266291
47.572000 -47.906000 -62.483000 -0.370240 -0.926880 -0.061774
47.854000 -48.105000 -61.586000 -0.431700 -0.879006 -0.202445
47.697000 -48.215000 -64.277000 -0.556053 -0.664481 0.499269
48.655000 -48.731000 -64.201000 -0.459032 -0.733592 0.501131
49.191000 -48.832000 -63.046000 -0.778213 -0.620284 -0.098143
48.850000 -48.961000 -61.690000 -0.903902 -0.350273 -0.245499
48.136000 -47.367000 -60.976000 0.231940 0.749607 0.619914
48.565000 -46.256000 -64.154000 0.482493 0.788041 -0.382351
48.494000 -46.854000 -65.481000 0.617992 0.638064 -0.459304
49.504000 -47.976000 -66.402000 0.468194 0.689763 -0.552287
49.194000 -46.945000 -64.743000 0.474381 0.680609 -0.558332
49.957000 -47.170000 -62.677000 0.278992 0.834343 0.475432
49.922000 -48.191000 -61.478000 0.411388 0.362935 0.836085
49.504000 -50.272000 -62.268000 -0.605172 -0.463514 0.647242
50.173000 -51.507000 -63.284000 0.068290 -0.674047 0.735525
50.446000 -52.515000 -64.651000 0.084374 -0.784228 0.614709
50.611000 -53.451000 -66.135000 0.085196 -0.747475 0.658804
50.773000 -54.411000 -67.346000 0.261061 -0.661506 0.703034
50.807000 -55.222000 -68.362000 0.240449 -0.769503 0.591650
50.193000 -56.144000 -69.882000 0.265945 -0.849600 0.455471
50.937000 -56.268000 -71.509000 0.527390 -0.834143 0.161451
50.207000 -56.309000 -72.944000 0.334612 -0.900594 -0.277426
50.742000 -54.724000 -74.562000 0.505668 -0.645129 -0.572808
50.882000 -53.135000 -74.615000 0.420027 0.418613 -0.805196
50.013000 -52.229000 -73.571000 -0.080028 0.906414 -0.414739
50.139000 -51.402000 -71.818000 -0.354746 0.582104 -0.731649
50.619000 -49.664000 -70.910000 -0.454959 0.765569 -0.454881
49.159000 -49.339000 -69.781000 0.407374 0.655689 -0.635703
49.981000 -49.064000 -68.299000 0.606026 0.734404 -0.305586
48.288000 -47.609000 -67.565000 0.747481 0.640922 -0.174617
48.605000 -48.450000 -69.098000 0.468086 0.617882 -0.631758
49.451000 -49.957000 -70.483000 0.155191 0.692707 -0.704324
49.365000 -51.168000 -71.316000 -0.137740 0.544552 -0.827340
49.530000 -52.117000 -72.879000 -0.131110 0.893825 -0.428821
49.668000 -52.523000 -74.262000 0.011993 0.854109 -0.519955
49.743000 -53.724000 -75.345000 0.276788 -0.026277 -0.960572
49.843000 -55.391000 -74.626000 0.222077 -0.792716 -0.567700
49.031000 -56.174000 -73.855000 0.163127 -0.843876 -0.511139
49.681000 -56.798000 -71.776000 0.167905 -0.985050 0.038524
49.157000 -56.588000 -70.245000 0.137538 -0.868306 0.476580
49.572000 -55.433000 -68.409000 0.055821 -0.781112 0.621891
48.663000 -54.979000 -67.517000 0.125028 -0.706299 0.696786
48.425000 -53.749000 -65.923000 0.262613 -0.574838 0.774981
48.576000 -52.852000 -65.278000 0.056197 -0.626072 0.777737
48.637000 -51.799000 -63.626000 -0.044731 -0.791396 0.609665
49.322000 -50.446000 -62.449000 -0.485988 -0.061686 0.871786
49.117000 -50.740000 -64.306000 0.193762 0.595255 -0.779825
