21.119239 9.849141 -35.556715 0.955067 -0.276856 0.105817
-26.826231 10.078149 -34.793248 -0.710706 -0.455769 -0.535884
-26.195395 10.123487 -35.472176 -0.621250 -0.386105 -0.681888
-24.005966 10.149599 -35.203971 0.711147 -0.688205 -0.143682
-21.459229 9.995105 -35.122933 -0.885859 -0.219912 -0.408525
-13.312065 10.097902 -35.609079 0.894818 0.146347 -0.421763
-13.085106 10.234303 -35.029899 0.931436 0.129967 -0.339905
6.914853 10.183798 -34.951374 -0.993771 0.104607 0.038435
16.886442 10.159333 -34.699074 0.244861 -0.784348 0.569948
17.614679 10.269428 -34.747386 -0.011847 -0.625456 0.780170
21.111891 9.989929 -35.150771 0.993102 -0.047288 0.107295
-26.963904 10.487044 -34.871260 -0.790857 -0.240374 -0.562820
-26.358272 10.583403 -35.474950 -0.647616 -0.145951 -0.747858
-23.667287 10.462961 -35.070899 0.638253 -0.748297 -0.180791
-21.984547 10.563857 -34.695065 -0.556779 -0.658007 -0.506975
-21.468285 10.449419 -35.327931 -0.799136 -0.234987 -0.553319
-13.078544 10.285927 -34.992175 0.931319 0.130915 -0.339862
6.927558 10.500931 -35.335473 -0.993390 0.104568 0.047345
21.129622 10.391049 -35.323457 0.983427 0.149903 0.101984
-27.120507 10.728590 -34.750339 -0.743539 -0.153627 -0.650806
-26.210278 10.707434 -35.598206 -0.651426 0.048251 -0.757177
-23.498866 10.735474 -35.548746 0.627509 -0.747034 -0.219481
-22.917188 10.827980 -34.844586 0.282635 -0.912117 -0.296917
-21.984104 10.614808 -34.769503 -0.478906 -0.761901 -0.436068
-21.731603 10.789679 -35.252473 -0.518373 -0.577417 -0.630777
-13.339054 10.858779 -35.430404 0.914053 0.149654 -0.376976
6.955939 10.782707 -35.407015 -0.992142 0.115839 0.047286
20.958873 10.809223 -34.856956 0.911729 0.386789 0.138361
-27.038566 10.957750 -34.886945 -0.752471 -0.000987 -0.658624
-26.368417 10.935678 -35.458631 -0.609391 0.088158 -0.787953
-23.161714 10.926177 -35.442809 0.425695 -0.834264 -0.350410
-22.365990 10.988034 -35.134848 -0.091571 -0.883671 -0.459065
-22.008154 11.132589 -35.450479 -0.134074 -0.768026 -0.626227
-13.321853 11.011617 -35.332113 0.916037 0.134713 -0.377794
7.001824 11.082025 -35.449229 -0.982184 0.179389 0.055987
20.941263 10.998691 -35.447786 0.763674 0.631990 0.131875
20.789846 11.200087 -35.347814 0.812529 0.573544 0.104138
-26.681381 11.291014 -35.175476 -0.569040 0.146838 -0.809093
-22.359305 11.286783 -35.615416 0.092244 -0.849272 -0.519835
-13.413377 11.291507 -35.433186 0.926049 0.151751 -0.345551
7.079941 11.232715 -34.815494 -0.944634 0.320783 0.069026
20.560818 11.382561 -34.851490 0.704024 0.704029 0.093237
-27.020057 11.593343 -34.860149 -0.677537 0.180902 -0.712894
-26.334991 11.785579 -35.271924 -0.485595 0.237291 -0.841362
-13.550759 11.839447 -35.521350 0.921967 0.195680 -0.334195
7.112871 11.563726 -35.562988 -0.938164 0.328372 0.109633
7.196288 11.574518 -34.892538 -0.932163 0.343404 0.114652
20.076920 11.805069 -34.696747 0.646657 0.759125 0.074593
-26.903233 11.982163 -34.846087 -0.544597 0.289923 -0.786994
-26.015753 12.123421 -35.329170 -0.440729 0.302439 -0.845156
-13.559938 12.046954 -35.392997 0.920626 0.261111 -0.290292
7.399803 12.011189 -34.903762 -0.871484 0.473299 0.128471
19.854311 12.020240 -35.018130 0.641946 0.763980 0.065107
19.821384 12.073657 -35.386339 0.603046 0.796895 0.035953
-26.743034 12.212175 -34.872180 -0.544374 0.348678 -0.762942
-25.852659 12.165350 -35.404784 -0.458395 0.340981 -0.820735
-13.521651 12.381770 -34.804699 0.871279 0.413850 -0.263820
7.391202 12.255172 -35.591173 -0.867319 0.465384 0.176566
7.506390 12.381040 -35.370175 -0.849643 0.491889 0.190138
19.441219 12.374653 -35.463115 0.621339 0.782429 0.041756
-26.456483 12.737476 -34.786434 -0.547179 0.483306 -0.683381
-25.709555 12.665647 -35.254145 -0.423225 0.386369 -0.819512
-13.804524 12.635864 -35.404182 0.853442 0.451823 -0.259794
-13.748222 12.773501 -34.954868 0.880895 0.411551 -0.233772
7.664808 12.678968 -35.529808 -0.813173 0.522496 0.256415
19.177117 12.619458 -35.560765 0.683931 0.729538 -0.003512
-26.510807 12.806243 -34.692106 -0.524485 0.543912 -0.655038
-25.648303 12.836091 -35.201662 -0.426917 0.452724 -0.782805
-25.029870 13.049764 -35.415598 -0.423181 0.470516 -0.774295
-14.057447 12.961599 -35.569919 0.791311 0.558570 -0.248649
8.022847 12.952065 -35.115341 -0.718511 0.655105 0.233625
8.251437 13.088203 -34.811066 -0.709367 0.666375 0.229657
18.965924 12.829507 -35.515990 0.669981 0.736967 -0.089466
-25.790360 13.315362 -34.810465 -0.429128 0.532544 -0.729552
-24.902069 13.160111 -35.416984 -0.419464 0.484773 -0.767493
-14.123499 13.269294 -35.010343 0.739970 0.631170 -0.232526
-14.059513 13.239389 -34.872696 0.767488 0.601541 -0.221611
8.298546 13.257617 -35.298426 -0.587220 0.782960 0.205294
18.411832 13.401303 -34.992009 0.590115 0.794377 -0.143974
18.685276 13.114782 -35.248342 0.692155 0.714922 -0.099035
-25.269647 13.503967 -34.982868 -0.378068 0.595515 -0.708821
-24.678779 13.545164 -35.275621 -0.376301 0.518553 -0.767789
-23.840494 13.692453 -35.586013 -0.366879 0.553897 -0.747394
-14.186285 13.414997 -34.807017 0.707589 0.665964 -0.236239
8.692975 13.574497 -35.249463 -0.522111 0.850754 0.060144
8.853478 13.681703 -35.354109 -0.748522 0.662995 -0.012344
17.957919 13.723293 -35.127290 0.633985 0.739654 -0.225776
18.169811 13.589268 -35.084632 0.575544 0.796942 -0.183388
-24.481872 13.752899 -35.230300 -0.365269 0.561892 -0.742197
-23.947106 13.961079 -35.347380 -0.361803 0.532780 -0.765013
-14.789588 14.019566 -34.769188 0.575459 0.761806 -0.297487
-14.630924 13.893769 -34.719164 0.660173 0.701436 -0.268625
8.992791 13.849180 -34.814505 -0.778613 0.622876 -0.076080
9.094852 13.964937 -34.924865 -0.787144 0.612219 -0.074779
17.571897 13.889062 -35.543557 0.534087 0.789515 -0.302354
-24.735955 14.111661 -34.820880 -0.452788 0.629964 -0.630974
-23.895714 14.113811 -35.263307 -0.357754 0.547533 -0.756452
-23.258750 14.312134 -35.473603 -0.419404 0.515216 -0.747431
-15.610588 14.279603 -35.408641 0.433586 0.789574 -0.434253
-15.094026 14.206346 -34.911725 0.445713 0.813915 -0.372670
9.321499 14.349016 -34.708655 -0.818558 0.484086 -0.309231
16.982954 14.341576 -35.458026 0.523261 0.778520 -0.346561
17.267176 14.143027 -35.464900 0.553412 0.760920 -0.338727
-24.188844 14.518525 -34.781563 -0.400440 0.640703 -0.655094
-23.612339 14.613055 -35.055662 -0.447797 0.519228 -0.727928
-22.728958 14.618473 -35.595342 -0.472415 0.517405 -0.713523
-16.579109 14.663091 -35.425695 0.211226 0.738133 -0.640737
-15.806899 14.658535 -35.036820 0.418522 0.724450 -0.547733
-15.202515 14.398496 -34.716261 0.612743 0.676125 -0.409148
9.771011 14.586517 -35.283451 -0.671430 0.545967 -0.501101
16.653759 14.630718 -35.388095 0.562296 0.733222 -0.382372
16.992630 14.394378 -35.316432 0.495497 0.804230 -0.328173
-23.309226 14.687866 -35.178553 -0.400123 0.604261 -0.689036
-22.653863 14.919885 -35.417975 -0.450914 0.523989 -0.722573
-18.231311 14.856745 -35.536081 0.218132 0.553796 -0.803572
-17.523308 14.780762 -35.481961 0.051960 0.532383 -0.844907
-16.709648 14.796884 -35.363156 0.196096 0.573613 -0.795308
-16.020157 14.728600 -35.128511 0.428673 0.613203 -0.663492
9.626378 14.941378 -34.828222 -0.838558 0.223347 -0.496927
10.119560 14.849752 -35.527734 -0.693331 0.358714 -0.624993
16.347864 14.788697 -35.521786 0.523814 0.728784 -0.441013
-23.414530 15.137941 -34.713128 -0.498783 0.638443 -0.586180
-22.849763 15.094225 -35.160553 -0.437819 0.562215 -0.701590
-22.221068 15.075398 -35.555968 -0.370538 0.572428 -0.731456
-18.264407 15.004550 -35.449236 0.240355 0.397779 -0.885439
-17.694331 15.185364 -35.294497 0.078647 0.344822 -0.935367
-16.834957 15.227063 -35.154917 0.265187 0.421481 -0.867197
-16.076980 14.991400 -34.924656 0.462394 0.523439 -0.715684
10.027230 15.023827 -35.335718 -0.710415 0.195490 -0.676088
16.042040 15.291081 -35.064896 0.562313 0.716418 -0.412975
16.484178 15.077878 -34.791945 0.608115 0.687763 -0.396457
-22.798422 15.420664 -34.912686 -0.491560 0.635956 -0.594920
-22.156489 15.477709 -35.268037 -0.365680 0.587525 -0.721867
-21.113338 15.559337 -35.616472 -0.207290 0.630278 -0.748185
-18.715876 15.326423 -35.434565 0.266208 0.359723 -0.894278
-17.945223 15.537949 -35.223774 0.101608 0.213329 -0.971682
-17.124343 15.563795 -35.126545 0.207339 0.238432 -0.948768
-16.230029 15.467543 -34.777864 0.598120 0.290271 -0.746991
10.207429 15.316707 -35.448011 -0.724286 -0.017079 -0.689288
15.500872 15.358506 -35.565020 0.507131 0.671561 -0.540207
16.046472 15.509241 -34.716053 0.613537 0.661978 -0.430532
-22.545414 15.620755 -34.906331 -0.430855 0.626154 -0.649843
-21.815892 15.798113 -35.167908 -0.342846 0.584437 -0.735452
-20.913250 15.775551 -35.492826 -0.159056 0.614016 -0.773101
-20.082091 15.812171 -35.538552 -0.011863 0.566191 -0.824188
-19.142464 15.880562 -35.342491 0.172411 0.355426 -0.918666
-18.456829 15.749715 -35.245362 0.148254 0.204108 -0.967657
-17.555383 15.652512 -35.172041 0.109440 0.096624 -0.989286
-16.716969 15.705810 -34.989564 0.344977 0.126131 -0.930098
9.716706 15.718965 -34.934301 -0.751982 -0.163880 -0.638487
14.989425 15.893096 -35.417067 0.505345 0.601602 -0.618629
15.376720 15.685466 -35.258356 0.665866 0.555103 -0.498481
-22.240680 15.959064 -34.774058 -0.385862 0.699479 -0.601531
-21.609671 16.096382 -35.010654 -0.268040 0.635649 -0.723951
-20.805352 16.164033 -35.236664 -0.212000 0.530269 -0.820896
-19.968023 16.066735 -35.379489 0.077638 0.465151 -0.881820
-19.157040 16.145302 -35.268280 0.099147 0.251633 -0.962731
-18.282601 16.141808 -35.178728 0.065301 0.065301 -0.995727
-17.529052 16.187118 -35.142874 0.120073 0.000000 -0.992765
-16.603231 15.957477 -34.916089 0.510434 -0.016325 -0.859762
9.917578 15.949054 -35.205983 -0.708957 -0.236125 -0.664549
14.587243 16.071757 -35.569109 0.489950 0.604179 -0.628424
15.027757 15.977331 -35.284480 0.653822 0.550029 -0.519601
-21.476457 16.487828 -34.712677 -0.422243 0.663529 -0.617608
-20.962425 16.257872 -35.133294 -0.204319 0.576480 -0.791154
-20.065650 16.301370 -35.269406 -0.138247 0.396902 -0.907390
-19.141423 16.319178 -35.228711 0.001807 0.151478 -0.988459
-18.280934 16.493125 -35.163856 0.032528 0.021531 -0.999239
-17.462162 16.435217 -35.135717 0.110386 0.000000 -0.993889
-16.410130 16.301416 -34.821770 0.483985 -0.091010 -0.870331
9.598829 16.521514 -35.083948 -0.693049 -0.266138 -0.669966
14.052232 16.538665 -35.562127 0.506804 0.552873 -0.661424
14.690613 16.331387 -35.234559 0.650693 0.528921 -0.544831
-21.117462 16.572267 -34.829062 -0.360949 0.619878 -0.696755
-20.412763 16.638354 -35.049929 -0.339409 0.443497 -0.829525
-19.582497 16.742439 -35.138462 -0.094473 0.206180 -0.973943
-18.699233 16.574865 -35.175888 0.042896 0.085792 -0.995389
-17.859148 16.822694 -35.155915 0.032073 0.000000 -0.999486
-16.846768 16.608144 -35.040847 0.305455 -0.068408 -0.949746
9.314300 16.564755 -34.798585 -0.745408 -0.314802 -0.587593
9.755782 16.760237 -35.326321 -0.637372 -0.276535 -0.719225
14.306781 16.588164 -35.331271 0.511552 0.527495 -0.678280
14.571462 16.633083 -35.032764 0.502192 0.658624 -0.560373
-20.356399 17.093977 -34.808780 -0.233899 0.507851 -0.829083
-19.522876 17.120654 -35.056299 -0.213992 0.190886 -0.958003
-18.620646 17.138152 -35.143510 -0.032506 0.042571 -0.998565
-17.773575 17.127463 -35.155238 0.010542 0.000000 -0.999944
-16.641080 17.056410 -35.037126 0.199311 -0.127241 -0.971640
-15.934999 17.042146 -34.691710 0.570923 -0.285459 -0.769779
9.563521 16.990018 -35.251682 -0.601437 -0.277587 -0.749146
13.554004 16.991826 -35.616622 0.529276 0.481162 -0.698821
14.315638 17.147399 -34.812022 0.606071 0.561585 -0.563294
-19.822382 17.405333 -34.869645 -0.424389 0.320972 -0.846683
-18.913173 17.179202 -35.126206 -0.077015 0.178443 -0.980932
-18.119696 17.394733 -35.146311 -0.010536 0.032534 -0.999415
-17.457127 17.451267 -35.154509 0.010539 -0.021541 -0.999712
-16.332863 17.240100 -34.964683 0.241702 -0.190622 -0.951443
8.769871 17.469511 -34.781291 -0.632683 -0.346161 -0.692737
9.560898 17.403257 -35.402385 -0.578419 -0.264869 -0.771541
13.560038 17.318385 -35.386770 0.544461 0.467063 -0.696718
14.113417 17.240958 -34.939625 0.629031 0.528704 -0.569906
-19.403222 17.740118 -34.878335 -0.203934 0.391915 -0.897114
-18.565426 17.601761 -35.102195 -0.149017 0.136150 -0.979417
-17.566075 17.625686 -35.154343 -0.042895 0.010532 -0.999024
-16.642593 17.634680 -35.100950 0.110021 -0.081275 -0.990601
-15.951988 17.607170 -34.899370 0.397637 -0.247893 -0.883422
9.006322 17.594525 -35.057529 -0.553060 -0.313040 -0.772095
9.533480 17.666544 -35.470546 -0.572392 -0.250995 -0.780621
13.624625 17.546302 -35.165295 0.576278 0.471675 -0.667403
-19.602315 17.819014 -34.739530 -0.416996 0.500392 -0.758763
-18.627188 17.807319 -35.062035 -0.142602 0.318149 -0.937255
-17.743532 17.862444 -35.139002 -0.042726 0.089236 -0.995094
-17.062369 18.064736 -35.146206 0.000000 0.000000 -1.000000
-16.058713 17.943533 -35.012025 0.191070 -0.186161 -0.963762
8.327410 18.012305 -34.699382 -0.612732 -0.434840 -0.659904
9.144276 17.827627 -35.246022 -0.549734 -0.258336 -0.794390
12.560197 18.040121 -35.603907 0.607026 0.631431 -0.482508
13.288423 18.014924 -35.110626 0.567393 0.504512 -0.650794
-18.948583 18.141488 -34.867979 -0.298665 0.411867 -0.860909
-17.993282 18.159808 -35.084084 -0.127086 0.213860 -0.968562
-17.180888 18.274682 -35.138954 0.000000 0.043833 -0.999039
-16.291234 18.325602 -35.110348 0.193659 -0.091204 -0.976820
-15.386110 18.161979 -34.816898 0.278422 -0.360281 -0.890325
8.628937 18.186983 -35.031851 -0.545776 -0.333448 -0.768727
9.218744 18.168753 -35.399682 -0.549825 -0.184172 -0.814723
12.667493 18.237527 -35.395598 0.452966 0.525379 -0.720277
13.126637 18.326321 -35.012166 0.629194 0.470430 -0.618717
-18.398727 18.624554 -34.827589 -0.242927 0.469530 -0.848839
-17.629203 18.567635 -35.065844 -0.232278 0.140409 -0.962462
-16.635012 18.522568 -35.138942 -0.032694 0.000000 -0.999465
-15.758643 18.602036 -35.057708 0.139526 -0.176281 -0.974401
-14.982358 18.565022 -34.794485 0.396007 -0.373609 -0.838805
8.404755 18.660329 -35.046960 -0.435778 -0.249075 -0.864904
9.359923 18.705399 -35.554930 -0.503637 -0.027204 -0.863487
12.257611 18.514835 -35.431526 0.402998 0.538776 -0.739806
12.991221 18.604805 -34.873762 0.593065 0.487206 -0.641017
-17.985427 18.741225 -34.942659 -0.268884 0.481407 -0.834235
-17.286456 18.976515 -35.049866 -0.235016 0.175077 -0.956094
-16.485572 18.935648 -35.132333 -0.032692 -0.011157 -0.999403
-15.386009 18.819735 -35.026449 0.138918 -0.198757 -0.970153
-14.600890 18.902679 -34.765475 0.411532 -0.389093 -0.824165
8.150248 18.941879 -35.007637 -0.432033 -0.279444 -0.857472
8.886785 18.982703 -35.312210 -0.383127 -0.018976 -0.923501
11.755016 18.904106 -35.412821 0.361248 0.527575 -0.768872
12.196086 18.959703 -35.151873 0.394141 0.517866 -0.759255
12.915414 18.885886 -34.700456 0.565974 0.565970 -0.599459
-17.439701 19.339089 -34.889768 -0.339628 0.260467 -0.903775
-16.609811 19.217099 -35.108245 -0.032437 0.125095 -0.991614
-15.510123 19.187236 -35.097313 0.141605 -0.044486 -0.988923
-14.737317 19.337040 -34.997114 0.428644 -0.281705 -0.858433
7.484435 19.181822 -34.758972 -0.496538 -0.460719 -0.735655
8.303755 19.268872 -35.126670 -0.256221 -0.089954 -0.962424
9.061922 19.283967 -35.364042 -0.431993 0.087919 -0.897581
11.197610 19.285063 -35.413376 0.345752 0.521932 -0.779771
11.808875 19.270309 -35.139225 0.369824 0.520011 -0.769948
12.436022 19.098128 -34.897743 0.399429 0.633478 -0.662694
-16.946400 19.431558 -35.006336 -0.332300 0.296132 -0.895479
-16.266863 19.513712 -35.098154 -0.032882 0.162764 -0.986117
-15.277294 19.445617 -35.102706 0.130023 -0.033538 -0.990944
-14.457994 19.509839 -34.955348 0.189944 -0.323009 -0.927139
7.028018 19.655434 -34.780651 -0.422043 -0.481186 -0.768335
7.957307 19.488595 -35.069726 -0.256193 -0.203446 -0.944973
8.773274 19.634949 -35.247951 -0.289318 0.065110 -0.955016
9.620149 19.585426 -35.467190 -0.205075 0.352415 -0.913098
10.486211 19.418875 -35.590902 0.176504 0.536778 -0.825055
11.398153 19.395497 -35.250868 0.364585 0.478520 -0.798809
12.014255 19.465214 -34.864961 0.494759 0.526542 -0.691352
-16.837672 19.821134 -34.878249 -0.225033 0.457093 -0.860480
-16.076537 19.790795 -35.064010 -0.198681 0.189928 -0.961485
-15.147020 19.800305 -35.109742 -0.033969 -0.011973 -0.999351
-14.302361 19.947691 -35.029315 0.178774 -0.306779 -0.934840
-13.459800 19.910534 -34.729615 0.383634 -0.532826 -0.754269
7.429028 19.953416 -35.045679 -0.204146 -0.243300 -0.948225
8.150562 19.915387 -35.144709 -0.163388 -0.066771 -0.984300
9.259072 19.741337 -35.340242 -0.233628 0.138800 -0.962368
10.274001 19.699270 -35.454177 0.029388 0.406845 -0.913025
10.869793 19.886714 -35.191166 0.297777 0.469469 -0.831221
11.532209 19.708738 -34.988596 0.441308 0.531570 -0.722966
-16.497911 20.266919 -34.765291 -0.378014 0.522525 -0.764247
-15.860185 20.276387 -34.968898 -0.225025 0.228269 -0.947236
-14.826242 20.101732 -35.100466 -0.047126 0.000000 -0.998889
-13.966638 20.270434 -35.036419 0.155523 -0.302727 -0.940303
-13.111807 20.195377 -34.762466 0.304183 -0.547115 -0.779832
6.600862 20.272572 -34.925555 -0.257514 -0.336404 -0.905825
7.654396 20.196912 -35.120437 -0.077231 -0.077231 -0.994018
8.682426 20.060185 -35.202520 -0.065234 0.079394 -0.994707
9.518800 20.120624 -35.281754 -0.109239 0.217462 -0.969937
10.507412 20.091505 -35.203348 0.210830 0.409097 -0.887801
11.112426 20.124938 -34.942124 0.442444 0.516736 -0.732958
-16.083996 20.444730 -34.823273 -0.253102 0.473066 -0.843889
-15.159247 20.335784 -35.069245 -0.094550 0.271124 -0.957889
-14.346641 20.411507 -35.091424 0.084057 -0.012471 -0.996383
-13.622947 20.453458 -35.008712 0.109166 -0.294289 -0.949461
-12.751059 20.611542 -34.896797 0.212422 -0.501893 -0.838439
6.210147 20.431708 -34.853233 -0.269178 -0.441575 -0.855894
7.023954 20.590384 -35.101265 -0.113604 -0.161798 -0.980263
8.070868 20.335100 -35.152786 -0.042858 -0.042858 -0.998162
8.736243 20.371379 -35.182223 -0.067198 0.065293 -0.995601
9.774147 20.464480 -35.174460 0.052483 0.269168 -0.961662
10.528208 20.474021 -35.005695 0.325769 0.464389 -0.823540
-15.766421 20.646387 -34.822693 -0.338640 0.519749 -0.784337
-14.845041 20.635498 -35.056814 -0.130260 0.311299 -0.941342
-14.264159 20.852022 -35.079599 -0.084531 0.034711 -0.995816
-13.229563 20.850031 -35.053822 0.059899 -0.252425 -0.965761
-12.496340 20.618391 -34.832425 0.275465 -0.402743 -0.872879
5.222076 20.873219 -34.735469 -0.317080 -0.591889 -0.741032
6.136864 20.729790 -34.971986 -0.189519 -0.301118 -0.934564
6.873915 20.665128 -35.094273 -0.114208 -0.125678 -0.985475
7.874834 20.717675 -35.154876 -0.010541 -0.010541 -0.999889
8.841599 20.728482 -35.156496 -0.000461 0.085257 -0.996359
9.643307 20.908418 -35.047327 0.157575 0.305891 -0.938936
10.314604 20.661535 -34.982092 0.440309 0.440797 -0.782193
-15.121093 20.995099 -34.875094 -0.277242 0.432802 -0.857799
-14.269866 21.149058 -35.030225 -0.182624 0.132435 -0.974222
-13.413473 21.071965 -35.092056 0.061835 -0.047035 -0.996978
-12.467458 21.157001 -35.043028 0.172403 -0.274004 -0.946150
-11.871111 21.230561 -34.994435 0.149384 -0.509179 -0.847597
4.668855 21.124942 -34.722938 -0.202476 -0.624203 -0.754569
5.586214 21.145125 -34.993663 -0.178578 -0.351801 -0.918883
6.532504 21.121918 -35.118419 -0.054771 -0.113134 -0.992069
7.185491 20.979572 -35.144822 -0.021835 -0.032528 -0.999232
8.280518 21.052833 -35.148558 0.021227 0.032066 -0.999260
9.055773 21.192735 -35.077292 0.104261 0.161964 -0.981273
9.867420 21.167986 -34.885207 0.336234 0.431665 -0.837026
-14.701234 21.482372 -34.771987 -0.228356 0.491168 -0.840599
-13.807533 21.479145 -35.045625 -0.217243 0.155063 -0.963722
-12.938275 21.529943 -35.117910 -0.033747 -0.067980 -0.997116
-12.111036 21.280731 -35.040921 0.119093 -0.210656 -0.970279
-11.236077 21.370089 -34.916322 0.264253 -0.384858 -0.884339
-10.412285 21.472901 -34.760586 0.267714 -0.629908 -0.729071
4.599369 21.295734 -34.833347 -0.266730 -0.547964 -0.792837
5.113426 21.552339 -35.051060 -0.123860 -0.307230 -0.943540
6.099295 21.468092 -35.128126 -0.054285 -0.087610 -0.994675
7.017199 21.488127 -35.154565 0.010542 0.000000 -0.999944
7.953208 21.515905 -35.131831 0.044491 0.076915 -0.996045
8.828478 21.429750 -35.059824 0.116113 0.188200 -0.975243
9.541917 21.449852 -34.861845 0.369001 0.475425 -0.798630
-14.123622 21.644970 -34.919698 -0.286254 0.394785 -0.873043
-13.298550 21.617072 -35.086623 -0.092823 0.196685 -0.976063
-12.531793 21.740878 -35.127280 0.033482 -0.011473 -0.999373
-11.390383 21.579615 -35.032765 0.139987 -0.195809 -0.970599
-10.766359 21.783705 -35.006812 0.115018 -0.401184 -0.908748
-10.040131 21.631729 -34.763887 0.192050 -0.547158 -0.814700
3.699126 21.728028 -34.857819 -0.188564 -0.511171 -0.838539
4.383319 21.639023 -34.966517 -0.170064 -0.350834 -0.920866
5.061269 21.851187 -35.110037 -0.056790 -0.160883 -0.985338
6.125600 21.772058 -35.146414 -0.010844 -0.021846 -0.999703
7.094613 21.638806 -35.150743 0.032488 0.053993 -0.998013
8.101021 21.809422 -35.076929 0.096026 0.175094 -0.979858
8.827898 21.761209 -34.956753 0.189568 0.318497 -0.928776
-14.223554 21.901081 -34.743933 -0.385858 0.514475 -0.765787
-13.437883 22.033194 -34.961745 -0.152403 0.357395 -0.921435
-12.425446 21.992516 -35.118730 -0.021427 0.103235 -0.994426
-11.527209 21.995972 -35.121220 0.080353 -0.044479 -0.995774
-10.680531 21.965208 -35.055730 0.044624 -0.238300 -0.970166
-9.758559 21.931607 -34.884381 0.110627 -0.442693 -0.889823
-9.038220 22.018302 -34.723668 0.233852 -0.602544 -0.763055
2.850902 22.165383 -34.886188 -0.219555 -0.495377 -0.840474
3.928215 22.076770 -35.053013 -0.115263 -0.282831 -0.952219
4.847500 21.884864 -35.099857 -0.081604 -0.159659 -0.983794
5.698529 22.069623 -35.147912 -0.032505 -0.043336 -0.998532
6.593037 22.083776 -35.139596 0.010836 0.043356 -0.999001
7.572480 21.924695 -35.104252 0.079186 0.175355 -0.981316
8.299237 22.041601 -34.972553 0.231579 0.372022 -0.898872
9.154191 21.945192 -34.720690 0.377284 0.544973 -0.748773
-13.040479 22.444546 -34.913883 -0.267237 0.282072 -0.921423
-12.108962 22.323611 -35.100310 -0.032807 0.175813 -0.983877
-11.227755 22.394655 -35.130177 0.033327 0.000000 -0.999445
-10.176531 22.263009 -35.072009 0.122111 -0.149211 -0.981236
-9.444547 22.306789 -34.991371 0.114426 -0.335815 -0.934952
-8.649135 22.467153 -34.904910 0.206607 -0.485401 -0.849529
2.332411 22.279986 -34.791575 -0.307888 -0.560247 -0.768979
2.995190 22.367893 -35.005933 -0.136531 -0.308229 -0.941464
3.950916 22.228585 -35.096071 -0.117830 -0.196379 -0.973423
4.761112 22.388905 -35.147105 -0.032803 -0.054611 -0.997969
5.689043 22.273397 -35.145478 0.000000 0.043359 -0.999060
6.697009 22.289248 -35.112828 0.044145 0.145973 -0.988303
7.261105 22.413616 -35.031804 0.160061 0.288912 -0.943880
8.265792 22.369789 -34.801019 0.358375 0.420590 -0.833470
-12.905615 22.506519 -34.931246 -0.252035 0.425802 -0.869006
-12.217871 22.564880 -35.046611 -0.093734 0.276365 -0.956471
-11.271646 22.593863 -35.121349 -0.022336 0.113276 -0.993312
-10.448820 22.735708 -35.134280 -0.032676 -0.032676 -0.998932
-9.521271 22.652936 -35.092780 0.032578 -0.210791 -0.976988
-8.599175 22.647186 -34.963981 0.131412 -0.401979 -0.906170
-8.022783 22.493660 -34.730964 0.282823 -0.609155 -0.740905
1.536757 22.554047 -34.713389 -0.288046 -0.570711 -0.768972
2.241469 22.803594 -35.027583 -0.136531 -0.308229 -0.941464
3.230019 22.546364 -35.086739 -0.109171 -0.187936 -0.976095
4.057883 22.617826 -35.137997 -0.032534 -0.011157 -0.999408
5.021902 22.540828 -35.141308 0.000000 0.098602 -0.995127
5.891613 22.725645 -35.085606 0.048358 0.173796 -0.983594
6.662879 22.719609 -35.017982 0.154798 0.317396 -0.935573
7.539164 22.743719 -34.831718 0.204656 0.436077 -0.876329
-12.704067 22.922861 -34.773966 -0.259466 0.511604 -0.819108
-11.902891 22.820911 -35.019563 -0.118040 0.355070 -0.927357
-11.018824 23.030596 -35.065026 -0.117943 0.197470 -0.973188
-10.097889 22.887785 -35.132405 -0.045876 0.055686 -0.997394
-9.117347 23.014810 -35.120907 0.011249 -0.113297 -0.993497
-8.251926 23.043527 -35.053215 0.079864 -0.312129 -0.946677
-7.503211 23.045894 -34.938750 0.236043 -0.444944 -0.863892
-6.618623 23.039335 -34.744128 0.219960 -0.646220 -0.730765
1.460731 22.868700 -34.914173 -0.206950 -0.447970 -0.869767
2.084268 22.885230 -35.030551 -0.081437 -0.247962 -0.965341
3.079295 22.984921 -35.127576 -0.021689 -0.033319 -0.999209
3.848516 22.944578 -35.130029 0.000000 0.067487 -0.997720
4.703637 22.820647 -35.121561 0.032975 0.173905 -0.984210
5.677103 22.932461 -35.045589 0.047214 0.274824 -0.960335
6.264203 23.113228 -34.919997 0.157839 0.402542 -0.901691
7.226551 22.969657 -34.769484 0.213052 0.551115 -0.806772
-11.844598 23.341994 -34.773991 -0.162435 0.534724 -0.829268
-11.151050 23.422595 -34.920517 -0.186639 0.299695 -0.935601
-10.066210 23.172638 -35.110045 -0.096120 0.175092 -0.979849
-9.130789 23.383409 -35.116931 -0.033920 0.055094 -0.997905
-8.364183 23.317429 -35.094135 0.022073 -0.096403 -0.995098
-7.530597 23.325727 -35.040622 0.140143 -0.258290 -0.955848
-6.853901 23.401308 -34.991023 0.099732 -0.474917 -0.874361
0.317595 23.307666 -34.756417 -0.443745 -0.440899 -0.780191
1.181369 23.370236 -35.048163 -0.135467 -0.258460 -0.956477
1.999281 23.388672 -35.103887 -0.034274 -0.046770 -0.998318
2.988321 23.244796 -35.121869 0.034454 0.113236 -0.992971
3.744738 23.119121 -35.117225 0.043117 0.199646 -0.978919
4.693506 23.305210 -35.008322 0.070232 0.303787 -0.950148
5.581620 23.332478 -34.902060 0.143421 0.410051 -0.900715
6.292344 23.188731 -34.865456 0.222785 0.496679 -0.838855
-11.326860 23.654992 -34.726414 -0.242071 0.547296 -0.801167
-10.617013 23.668070 -34.894703 -0.113282 0.411670 -0.904265
-9.652682 23.432148 -35.093044 -0.045535 0.257601 -0.965178
-8.895614 23.562438 -35.089470 -0.036333 0.163704 -0.985840
-8.029839 23.741517 -35.072276 -0.013409 0.035720 -0.999272
-6.928297 23.461199 -35.019685 0.026207 -0.177961 -0.983689
-6.173749 23.559861 -34.909676 0.343771 -0.291118 -0.892789
0.363100 23.459198 -34.845912 -0.385037 -0.175341 -0.906091
1.082797 23.583582 -35.060316 -0.100020 -0.026499 -0.994633
2.088642 23.602107 -35.091576 0.035781 0.130013 -0.990866
2.912008 23.695007 -35.045286 0.074557 0.241641 -0.967497
3.884522 23.449064 -35.036437 0.071874 0.312006 -0.947357
4.692885 23.555636 -34.904755 0.092523 0.446280 -0.890098
5.588985 23.515662 -34.795946 0.128874 0.573001 -0.809359
-10.657371 23.921024 -34.727070 -0.234589 0.575810 -0.783206
-9.775205 23.906787 -34.924281 -0.195780 0.397493 -0.896476
-8.962477 23.870593 -35.010664 -0.034612 0.341804 -0.939134
-7.941288 23.770256 -35.066378 -0.012981 0.252858 -0.967416
-7.029857 23.788686 -35.068890 0.026499 0.100020 -0.994633
-6.312049 23.829463 -35.021786 0.088313 -0.068742 -0.993718
0.079361 23.787939 -34.728211 -0.555339 0.040524 -0.830636
0.664933 24.046947 -34.964488 -0.171126 0.127931 -0.976908
1.812420 24.045716 -35.010283 0.038349 0.234105 -0.971455
2.573643 23.997714 -34.968909 0.098542 0.353247 -0.930326
3.429365 23.967574 -34.884087 0.107265 0.414099 -0.903890
4.335022 23.818100 -34.818122 0.115221 0.567078 -0.815565
-9.736192 24.163134 -34.786438 -0.189184 0.588561 -0.786006
-9.060255 24.106854 -34.909843 -0.052511 0.519229 -0.853020
-8.329324 24.236578 -34.889699 -0.067425 0.432463 -0.899127
-7.304597 24.344765 -34.949187 -0.120501 0.290585 -0.949231
-6.534384 24.284455 -35.015736 0.087103 0.178386 -0.980098
-5.641094 24.311279 -34.786489 0.601718 0.064232 -0.796122
0.826520 24.138064 -34.963834 -0.163639 0.317111 -0.934164
1.560913 24.063252 -35.014979 0.036779 0.361375 -0.931695
2.399770 24.325817 -34.824039 0.132399 0.468379 -0.873551
3.141026 24.145736 -34.822407 0.114816 0.560342 -0.820265
-8.638719 24.468415 -34.716349 -0.086607 0.627891 -0.773467
-7.274033 24.382048 -34.937792 -0.107676 0.518604 -0.848207
-6.609640 24.582978 -34.920828 -0.110145 0.365512 -0.924267
-5.883644 24.632023 -34.795760 0.400787 0.301325 -0.865201
0.680416 24.416995 -34.832022 -0.143170 0.487619 -0.861237
1.574955 24.545614 -34.781953 0.111596 0.526719 -0.842682
-7.465499 24.692365 -34.728487 -0.166298 0.633654 -0.755531
-6.480710 24.954930 -34.689804 -0.016367 0.552313 -0.833476
-4.730322 -4.433267 -34.490992 -0.017224 -0.964514 0.263470
-3.522675 -4.444006 -34.517951 0.000000 -0.958895 0.283762
-2.797184 -4.431708 -34.421421 -0.021213 -0.954508 0.297431
-1.498904 -4.461481 -34.639505 0.104460 -0.955340 0.276431
-6.215234 -4.238208 -34.472835 -0.215659 -0.948897 0.230404
-5.781259 -4.344484 -34.527294 -0.193499 -0.952152 0.236570
-5.384463 -4.337950 -34.261068 -0.133948 -0.959977 0.245971
-5.311476 -4.276781 -33.990991 -0.080200 -0.965587 0.247405
-5.032146 -4.340241 -34.168528 -0.017141 -0.964861 0.262203
-4.428049 -4.423995 -34.444533 -0.011197 -0.963024 0.269181
-4.197578 -4.274560 -33.949500 0.036730 -0.958477 0.282793
-3.802693 -4.322451 -34.115192 0.000000 -0.957083 0.289814
-3.430183 -4.293551 -34.025392 -0.032705 -0.954641 0.295958
-2.910485 -4.389131 -34.296847 -0.015901 -0.950657 0.309835
-2.675447 -4.315493 -34.055633 -0.022106 -0.950493 0.309958
-2.220708 -4.316140 -34.047431 0.000000 -0.950725 0.310035
-1.732978 -4.364844 -34.255292 0.061670 -0.953185 0.296034
-1.520129 -4.289878 -34.069854 0.110923 -0.949258 0.294288
-1.236791 -4.334544 -34.324024 0.179382 -0.941751 0.284475
-0.722328 -4.271888 -34.511630 0.235667 -0.932343 0.274222
-0.554692 -4.119471 -34.130845 0.245024 -0.933727 0.260992
-7.424012 -3.804482 -34.283958 -0.336744 -0.904992 0.259985
-7.204263 -3.808671 -34.012021 -0.355197 -0.898452 0.258107
-6.892941 -4.035917 -34.447017 -0.313991 -0.921035 0.230443
-0.576306 -4.096912 -34.036865 0.272740 -0.917178 0.290514
-0.206272 -3.939069 -33.926446 0.350585 -0.893111 0.281854
0.042361 -3.997820 -34.423604 0.348655 -0.892765 0.285326
-8.046525 -3.503308 -34.438050 -0.484767 -0.811907 0.325282
-7.644579 -3.748180 -34.457166 -0.509552 -0.806543 0.299742
0.096824 -3.759805 -33.790458 0.468228 -0.813234 0.345561
0.406286 -3.720010 -34.139661 0.512314 -0.779158 0.361176
-8.252811 -3.237726 -34.319827 -0.632784 -0.651063 0.419167
-7.912681 -3.268294 -33.857473 -0.629167 -0.653536 0.420760
0.785438 -3.376646 -34.048440 0.678136 -0.573981 0.458996
1.231586 -3.275510 -34.638860 0.740704 -0.555528 0.377818
-8.414097 -2.911055 -34.206860 -0.708862 -0.416955 0.568914
1.210871 -3.119480 -34.418113 0.757525 -0.374317 0.534829
-8.565610 -2.562547 -34.234392 -0.754048 -0.253026 0.606127
-8.368477 -2.590992 -34.008666 -0.734698 -0.196783 0.649227
1.419317 -2.755885 -34.577729 0.865964 -0.158141 0.474445
-8.628186 -2.310765 -34.259643 -0.727625 -0.057756 0.683539
0.971759 -2.350834 -33.934586 0.772704 0.192717 0.604805
1.236191 -2.411128 -34.239796 0.829975 0.108738 0.547100
-8.241713 -2.204487 -33.873050 -0.685918 0.106497 0.719844
1.010096 -2.025834 -34.128074 0.709021 0.349599 0.612429
-8.941636 -1.699336 -34.681311 -0.770344 0.164995 0.615911
-8.176247 -1.668559 -33.991321 -0.571292 0.306445 0.761391
0.584352 -1.898774 -33.809570 0.457477 0.556508 0.693552
1.152483 -1.769030 -34.429663 0.640031 0.431745 0.635577
-8.255219 -1.553686 -34.100562 -0.561839 0.351632 0.748794
-7.835308 -1.583678 -33.802457 -0.370451 0.503756 0.780382
-4.528299 -1.424757 -33.769443 0.125397 0.953539 0.273934
-4.009646 -1.401579 -34.092355 0.110962 0.957458 0.266386
-3.714355 -1.448585 -33.999599 0.043231 0.965973 0.255006
-3.436292 -1.469527 -33.941806 0.001658 0.968706 0.248205
-2.942742 -1.302844 -34.556328 -0.043975 0.967359 0.249566
-2.614944 -1.321381 -34.367949 -0.111721 0.960824 0.253646
-2.304910 -1.423636 -33.836413 -0.111068 0.955179 0.274404
-1.434878 -1.305213 -33.831733 -0.077592 0.943338 0.322634
0.144471 -1.409719 -33.985573 0.297905 0.682272 0.667651
0.808594 -1.540923 -34.275453 0.504533 0.571381 0.647279
-8.626920 -1.228737 -34.570099 -0.595864 0.458911 0.659049
-7.866013 -1.109443 -34.147317 -0.364341 0.569667 0.736705
-7.342664 -1.277120 -33.776539 -0.306969 0.679723 0.666144
-6.293184 -1.007144 -34.026486 0.035299 0.878840 0.475809
-5.709181 -1.179284 -33.887260 0.127105 0.923826 0.361095
-5.543555 -0.984063 -34.490021 0.244554 0.910038 0.334700
-5.221443 -1.016775 -34.640407 0.255283 0.919225 0.299761
-4.547116 -1.196141 -34.546461 0.171754 0.944645 0.279546
-4.030220 -1.269868 -34.562524 0.109174 0.960719 0.255146
-2.326971 -1.230562 -34.541554 -0.154820 0.951167 0.267042
-1.817556 -1.194487 -34.328351 -0.209383 0.937639 0.277474
-1.448212 -1.147607 -34.312806 -0.195315 0.918440 0.343977
-1.052412 -1.266008 -33.883458 -0.027714 0.936116 0.350598
-0.912586 -1.027990 -34.412027 -0.087522 0.886786 0.453819
-0.565006 -1.026224 -34.371160 -0.047164 0.852308 0.520910
0.270275 -1.030471 -34.475794 0.173083 0.753381 0.634397
0.672339 -1.193022 -34.494485 0.440730 0.662822 0.605329
-8.030870 -0.979421 -34.330418 -0.327221 0.674647 0.661648
-7.274165 -0.925641 -34.123844 -0.042933 0.775450 0.629947
-6.802495 -0.880227 -34.158138 0.004710 0.825068 0.565014
-6.349876 -0.750745 -34.511725 0.244375 0.871250 0.425680
-5.945137 -0.818489 -34.616680 0.273575 0.883860 0.379405
-0.427773 -0.918773 -34.553941 -0.041526 0.887648 0.458646
-7.709744 -0.587668 -34.622533 -0.147393 0.784823 0.601937
-6.865546 -0.666701 -34.481747 0.096735 0.889948 0.445685
9.655984 0.876773 -34.307547 -0.261089 -0.843518 0.469372
10.259411 0.701577 -34.396100 -0.136279 -0.863802 0.485050
10.606600 0.763969 -34.233266 -0.084291 -0.881644 0.464327
11.117756 0.775522 -34.306031 0.152469 -0.883160 0.443600
11.306335 0.766476 -34.420061 0.240809 -0.877163 0.415447
8.901895 1.128823 -34.453318 -0.431464 -0.739216 0.517106
9.379196 1.057488 -34.205771 -0.311104 -0.768384 0.559286
9.971376 0.932061 -34.079721 -0.235354 -0.808279 0.539716
10.452925 1.037033 -33.781966 -0.122042 -0.854300 0.505250
11.282085 0.922752 -34.091661 0.303453 -0.806245 0.507824
11.661507 1.148804 -33.983925 0.373266 -0.795086 0.478029
-18.877656 1.494492 -34.584370 -0.359858 -0.910218 0.204950
-18.353532 1.342386 -34.568141 -0.218560 -0.939801 0.262688
-17.901742 1.358107 -34.297117 -0.045927 -0.936051 0.348855
-17.662543 1.222093 -34.603334 -0.092518 -0.933109 0.347489
-17.325682 1.508020 -33.935852 0.102225 -0.905948 0.410862
-16.939897 1.337877 -34.462785 0.167719 -0.901494 0.398971
-16.447622 1.402531 -34.669081 0.355225 -0.848900 0.391388
8.785150 1.303419 -34.320933 -0.466957 -0.684653 0.559644
9.239010 1.274894 -34.006762 -0.384280 -0.721975 0.575397
12.053585 1.378778 -33.999041 0.501868 -0.692207 0.518631
12.487087 1.395369 -34.413427 0.503314 -0.724773 0.470510
-19.315545 1.713149 -34.390850 -0.421982 -0.893241 0.155086
-18.888915 1.597132 -34.164147 -0.374220 -0.902516 0.213130
-18.806495 1.557121 -34.190552 -0.214156 -0.950651 0.224497
-17.362857 1.536688 -33.864869 0.105787 -0.898907 0.425177
-16.734054 1.585389 -34.066869 0.315299 -0.824627 0.469657
-16.212088 1.695176 -34.337021 0.466365 -0.766426 0.441694
8.397001 1.740658 -34.200877 -0.614843 -0.576186 0.538496
8.729817 1.717410 -33.909744 -0.540697 -0.587536 0.602037
12.306968 1.633648 -33.910429 0.507167 -0.672692 0.538764
12.842817 1.826511 -34.133076 0.399612 -0.742042 0.538223
-19.837926 1.986161 -34.571898 -0.563241 -0.819897 0.102605
-19.480233 1.880441 -33.829122 -0.447842 -0.885197 0.125949
-16.300436 1.922846 -33.870369 0.541350 -0.699242 0.466906
-15.727537 2.057342 -34.344488 0.606002 -0.688792 0.397903
7.907943 1.950331 -34.595295 -0.699314 -0.535385 0.473628
8.537528 1.910995 -33.898412 -0.561446 -0.551756 0.616720
13.030523 1.870022 -34.208893 0.384458 -0.764239 0.517813
13.597508 2.056102 -34.254233 0.216209 -0.842326 0.493701
13.964603 2.059027 -34.452538 0.129898 -0.916926 0.377324
-20.411758 2.436921 -34.584039 -0.656374 -0.741069 0.141382
-20.271774 2.316476 -34.595977 -0.631243 -0.761844 0.145346
-15.875679 2.181786 -33.986704 0.613923 -0.601244 0.511473
-15.269712 2.380858 -34.601425 0.694690 -0.598208 0.399442
7.864331 2.412931 -34.199722 -0.689519 -0.465408 0.554941
13.432103 2.209790 -33.921294 0.218659 -0.838387 0.499296
14.065738 2.173992 -34.210652 0.116639 -0.911874 0.393550
14.469234 2.323299 -33.912132 0.006393 -0.957260 0.289159
14.780969 2.358912 -33.819247 0.023105 -0.970470 0.240113
15.252238 2.288664 -34.487194 0.116622 -0.979621 0.163531
15.376301 2.308005 -34.549972 0.352677 -0.925788 0.136147
-20.510414 2.706673 -33.833767 -0.721226 -0.676154 0.150497
-20.625931 2.694250 -34.317462 -0.682707 -0.715742 0.147054
-15.327847 2.512520 -34.318847 0.723432 -0.497839 0.478333
7.726893 2.534905 -34.284904 -0.747590 -0.415380 0.518236
7.992289 2.460374 -34.000945 -0.689519 -0.465408 0.554941
15.922187 2.549232 -34.608416 0.490745 -0.869942 0.048686
16.211429 2.730652 -34.080722 0.408651 -0.912666 -0.006757
-20.705314 2.857580 -33.991324 -0.652877 -0.725423 0.217977
-20.803623 2.828514 -34.377383 -0.634357 -0.745575 0.204228
-15.196475 2.860357 -34.162227 0.736442 -0.469623 0.486936
7.297934 3.020258 -34.604477 -0.832313 -0.345104 0.433772
16.471153 2.903195 -34.523464 0.570338 -0.821286 -0.014282
16.602404 2.985246 -34.591255 0.595823 -0.794417 -0.117883
-21.682862 3.366824 -34.374812 -0.463554 -0.863898 0.196974
-21.383147 3.359235 -33.850388 -0.379280 -0.900793 0.211467
-21.214190 3.188512 -34.161762 -0.472739 -0.851377 0.227322
-14.889925 3.388317 -34.155735 0.730815 -0.469458 0.495498
7.298029 3.315716 -34.347751 -0.813071 -0.348941 0.465999
16.772190 3.116309 -34.622123 0.585496 -0.802356 -0.115840
17.025990 3.273947 -34.494076 0.555657 -0.822373 -0.122263
-22.316837 3.632657 -34.532912 -0.523852 -0.851269 0.030335
-22.208647 3.591425 -33.969415 -0.441821 -0.896534 0.031948
-21.718938 3.436824 -34.148594 -0.455242 -0.869100 0.193442
-15.032218 3.554520 -33.808455 0.760742 -0.412978 0.500721
-14.472532 3.660279 -34.625345 0.808350 -0.397275 0.434446
7.240297 3.609782 -34.227043 -0.821852 -0.338465 0.458259
17.390129 3.525813 -34.635120 0.515694 -0.834125 -0.195694
17.554774 3.536119 -34.240339 0.533847 -0.823003 -0.194096
-22.990615 3.968613 -34.038014 -0.491708 -0.855145 -0.164165
-22.876329 3.892415 -33.984741 -0.606327 -0.780955 -0.149923
-14.664398 3.792679 -34.194249 0.803022 -0.366574 0.469872
6.983781 3.745402 -34.676280 -0.887826 -0.235711 0.395228
7.317424 3.934868 -33.872880 -0.841633 -0.286787 0.457610
17.835568 3.761778 -34.463852 0.545397 -0.807193 -0.225792
18.126960 3.937167 -34.460846 0.566602 -0.798345 -0.203977
-23.074129 4.182412 -34.589206 -0.665814 -0.712581 -0.221178
-14.619489 4.158369 -33.971114 0.787771 -0.411452 0.458392
-14.382753 4.241824 -34.306739 0.843628 -0.335688 0.419053
7.186295 4.073208 -34.035383 -0.857881 -0.215568 0.466444
18.594754 4.287909 -34.420834 0.660679 -0.726746 -0.187999
-23.671555 4.398262 -33.799281 -0.622621 -0.726398 -0.291015
-23.400334 4.436548 -34.421414 -0.741601 -0.586875 -0.324971
-14.216414 4.644553 -34.324020 0.842548 -0.319422 0.433685
7.095326 4.338689 -34.109040 -0.902635 -0.143335 0.405838
18.665466 4.415935 -34.668411 0.659319 -0.727522 -0.189761
18.793075 4.477135 -34.439739 0.695827 -0.695836 -0.177867
-23.791136 4.774749 -34.237841 -0.736161 -0.530297 -0.420538
-14.307928 4.847370 -33.978902 0.836263 -0.362912 0.411046
6.784852 4.920821 -34.655188 -0.925282 -0.073392 0.372111
7.232279 4.785358 -33.753519 -0.861412 -0.019905 0.507516
19.101589 4.808624 -34.315379 0.792986 -0.594750 -0.132082
-24.029735 4.986353 -34.146790 -0.733541 -0.444777 -0.513898
-14.139492 4.994687 -34.197936 0.859852 -0.286407 0.422641
6.821184 5.025520 -34.550558 -0.927204 -0.035359 0.372884
7.233469 5.270766 -33.774001 -0.849368 0.049957 0.525431
19.304065 5.129700 -33.816768 0.944102 -0.323740 -0.062168
-24.278726 5.527906 -34.227762 -0.678124 -0.330256 -0.656566
-13.841917 5.570603 -34.466669 0.878740 -0.244173 0.410117
6.774028 5.550046 -34.637541 -0.909019 0.016429 0.416432
19.370739 5.466628 -33.904585 0.994717 -0.094735 -0.039536
19.387168 5.588908 -33.790202 0.994454 -0.097056 -0.040505
-24.359709 5.832273 -34.243544 -0.660102 -0.107577 -0.743433
-13.895726 5.595262 -34.336286 0.872349 -0.270646 0.407134
6.920900 5.696208 -34.355274 -0.861608 0.029138 0.506737
19.344525 5.763502 -33.799509 0.969083 0.242258 -0.046785
-24.776935 6.035025 -33.866956 -0.761343 -0.050755 -0.646360
-24.221428 6.199473 -34.351904 -0.626487 0.083145 -0.774984
-14.032817 6.075258 -33.793870 0.865278 -0.173053 0.470475
7.063892 5.998484 -34.147621 -0.846284 0.003071 0.532724
19.221988 6.032392 -34.152255 0.863857 0.502767 -0.031245
19.254715 5.934625 -34.676149 0.791107 0.606524 -0.079239
-24.367256 6.259991 -34.219778 -0.614169 0.213504 -0.759745
-13.899769 6.298957 -33.945047 0.854284 -0.233327 0.464497
6.788790 6.303537 -34.596625 -0.876395 -0.029266 0.480702
7.361920 6.249205 -33.784858 -0.772049 0.067867 0.631929
17.679223 6.470959 -34.536184 0.065977 0.913411 -0.401656
18.546064 6.396830 -34.654520 0.180438 0.973506 -0.140455
18.996320 6.266512 -34.343054 0.551982 0.829648 -0.083672
19.093490 6.226154 -34.015990 0.705457 0.705447 -0.068378
-24.081475 6.611646 -34.306158 -0.581927 0.414113 -0.699908
-13.884459 6.821430 -33.756126 0.823842 -0.193086 0.532919
-13.473740 6.705294 -34.573994 0.895843 -0.248130 0.368641
7.187544 6.609998 -34.034948 -0.756716 0.048081 0.651974
16.956694 6.735184 -34.380173 0.264448 0.732398 -0.627424
17.451433 6.662718 -34.248257 0.278734 0.812267 -0.512376
17.921761 6.665693 -34.069382 0.036389 0.911073 -0.410637
18.294431 6.636041 -33.931678 0.287996 0.932504 -0.217931
-24.059295 7.036374 -34.005861 -0.510762 0.585603 -0.629437
-23.726257 6.918330 -34.402388 -0.592690 0.558859 -0.579995
-13.579673 6.947126 -34.212101 0.836462 -0.299139 0.459182
6.952689 7.049793 -34.339229 -0.777813 -0.006426 0.628462
16.208702 7.046912 -34.626364 0.619977 0.519981 -0.587578
16.724757 6.997953 -34.254254 0.476949 0.603932 -0.638581
17.484075 6.878813 -33.893930 0.430404 0.760569 -0.486094
-23.718128 7.198363 -34.145892 -0.540749 0.627905 -0.559755
-13.589233 7.299532 -33.973287 0.832606 -0.294489 0.469088
-13.376480 7.288325 -34.414875 0.888587 -0.243894 0.388496
7.317920 7.175309 -33.933609 -0.710809 0.006961 0.703351
15.969577 7.369124 -34.635616 0.666029 0.429694 -0.609729
16.779656 7.253315 -33.979168 0.490784 0.572141 -0.657104
-23.278354 7.506835 -34.271500 -0.591774 0.639370 -0.490927
-13.539904 7.530207 -33.922372 0.822888 -0.291990 0.487439
-13.362331 7.565566 -34.256429 0.872695 -0.304673 0.381547
7.022788 7.670182 -34.250787 -0.736638 0.014610 0.676129
15.997961 7.564554 -34.497741 0.671557 0.304759 -0.675376
16.594226 7.650690 -33.893316 0.642584 0.351970 -0.680590
-22.873710 7.937329 -34.231512 -0.662283 0.602490 -0.445407
-13.426491 8.010871 -33.824006 0.861576 -0.294457 0.413499
6.700025 7.892768 -34.668076 -0.828471 0.009350 0.559954
7.409001 7.964955 -33.882853 -0.677079 0.070360 0.732539
16.242359 7.825744 -34.151304 0.695789 0.202544 -0.689096
-22.786364 8.289841 -33.879775 -0.682121 0.601869 -0.415289
-22.538896 8.225803 -34.348119 -0.683777 0.577319 -0.446263
-13.050885 8.262910 -34.536391 0.923272 -0.183273 0.337610
7.138513 8.267458 -34.169652 -0.721624 0.080812 0.687553
15.686789 8.295880 -34.664348 0.771203 0.064994 -0.633263
16.364927 8.189729 -33.919082 0.743578 0.109415 -0.659637
-22.286999 8.603187 -34.270529 -0.705803 0.538196 -0.460638
-13.242814 8.671113 -33.878691 0.885402 -0.166010 0.434169
6.807446 8.669690 -34.589828 -0.816068 0.081607 0.572166
7.367725 8.611039 -34.002304 -0.651263 0.134114 0.746907
16.101471 8.482191 -34.170276 0.721979 -0.021080 -0.691593
-22.338272 8.972849 -33.796049 -0.783105 0.445940 -0.433456
-13.203686 8.889638 -33.905328 0.894269 -0.089369 0.438515
-13.106763 8.804401 -34.164036 0.934675 -0.070992 0.348343
7.369111 8.770338 -34.029428 -0.651604 0.130213 0.747299
15.820433 8.960260 -34.565687 0.799357 -0.140303 -0.584246
-26.031675 9.307939 -34.417888 -0.464647 -0.885047 0.028187
-25.872320 9.281345 -34.394111 -0.263722 -0.958970 0.104055
-25.470336 9.257845 -34.359996 0.241747 -0.924930 0.293364
-22.236917 9.093827 -33.868705 -0.811244 0.363033 -0.458356
-21.773734 9.332188 -34.513268 -0.837759 0.308930 -0.450247
-13.126381 9.341153 -34.064688 0.929724 0.008785 0.368153
7.383484 9.190933 -34.090094 -0.644897 0.139939 0.751349
16.205077 9.074288 -34.119573 0.729820 -0.333028 -0.597039
19.602586 9.216028 -34.681504 -0.346397 -0.541248 0.766198
20.609561 9.237011 -34.681887 0.273482 -0.589946 0.759717
-26.596965 9.572006 -34.163607 -0.625341 -0.760188 -0.176249
-26.174139 9.373516 -34.393268 -0.514447 -0.857411 -0.013802
-25.248845 9.519412 -33.973249 0.480550 -0.783268 0.394415
-24.819094 9.385966 -34.619872 0.496660 -0.735647 0.460601
-22.067102 9.549983 -33.913055 -0.872155 0.161992 -0.461632
-13.271348 9.411181 -33.766771 0.882148 0.080199 0.464094
7.038472 9.622308 -34.492510 -0.755661 0.119312 0.644004
7.614650 9.521688 -33.948949 -0.633492 0.105747 0.766489
16.478504 9.618796 -34.015207 0.806767 -0.406768 -0.428564
19.239393 9.589106 -34.619630 -0.384187 -0.455172 0.803255
20.043820 9.401548 -34.459322 0.034375 -0.375300 0.926266
-26.992336 9.899955 -34.042386 -0.705209 -0.663726 -0.249294
-26.791125 9.866133 -34.551979 -0.734693 -0.629739 -0.252299
-24.814130 9.729444 -34.114919 0.593277 -0.585889 0.552047
-24.299415 9.797547 -34.609651 0.635599 -0.609421 0.473940
-21.645269 9.717815 -34.642153 -0.878345 -0.110563 -0.465065
-12.924432 9.960078 -34.682512 0.923844 0.085937 0.372999
7.237416 9.786881 -34.298893 -0.648939 0.070182 0.757596
16.188348 9.692229 -34.637252 0.647332 -0.647312 -0.402427
16.640926 9.920592 -34.080493 0.902596 -0.370087 -0.219900
19.336175 9.957019 -34.424181 -0.313924 -0.313924 0.896049
20.217102 9.791748 -34.332391 0.060904 -0.200777 0.977742
20.979958 9.831735 -34.648360 0.688203 -0.204009 0.696245
-27.054974 10.105019 -34.315404 -0.790753 -0.542523 -0.283513
-24.295207 10.010958 -34.387665 0.644252 -0.518325 0.562386
-23.891867 10.165350 -34.680001 0.635917 -0.615402 0.465714
-21.776877 9.986349 -34.464704 -0.848284 -0.283630 -0.447178
-13.045328 10.067946 -34.424118 0.917157 0.127975 0.377421
7.173232 10.261067 -34.401413 -0.642475 0.080009 0.762118
16.797169 10.140997 -34.401515 0.411979 -0.910416 0.037632
16.621561 9.978765 -34.273269 0.724775 -0.665974 -0.176577
18.736951 10.045248 -34.613795 -0.235314 -0.428197 0.872510
19.187847 10.199119 -34.395869 -0.219917 -0.219916 0.950407
20.132776 10.198887 -34.270935 0.105529 -0.049072 0.993205
21.067107 10.130301 -34.684060 0.702350 -0.042568 0.710558
-27.100219 10.335653 -34.559787 -0.884414 -0.325839 -0.334128
-24.188926 10.526819 -33.998742 0.596671 -0.547000 0.587175
-23.745661 10.328729 -34.646860 0.567319 -0.693477 0.444116
-22.086212 10.590423 -34.560943 -0.614587 -0.726326 -0.307786
-13.359846 10.577965 -33.983379 0.846026 0.196120 0.495760
7.165684 10.557636 -34.444173 -0.768875 0.074860 0.635002
7.544438 10.555964 -34.105102 -0.643632 0.045763 0.763966
16.986325 10.362310 -33.786996 0.801332 -0.498646 0.330484
17.591499 10.477954 -34.466778 0.011288 -0.827700 0.561057
18.335164 10.511227 -34.469308 -0.058465 -0.449579 0.891325
19.082464 10.477225 -34.350385 -0.218534 -0.245560 0.944428
20.217514 10.324870 -34.275714 0.105656 0.000000 0.994403
20.861497 10.537945 -34.542463 0.542141 0.138858 0.828735
-27.499474 10.864788 -34.082328 -0.874295 -0.229372 -0.427781
-24.064564 10.647025 -33.990781 0.478737 -0.656691 0.582724
-23.305959 10.897247 -34.122703 0.153519 -0.833576 0.530644
-22.900747 10.898733 -34.098546 -0.062441 -0.981636 0.180256
-22.782948 10.787293 -34.336814 -0.609806 -0.776116 0.160562
-22.435267 10.663181 -34.096936 -0.203005 -0.962154 -0.181795
-13.459605 10.753279 -33.866752 0.853366 0.147329 0.500061
7.153369 10.831266 -34.497482 -0.786018 0.085016 0.612330
7.686766 10.803469 -34.002141 -0.643032 0.053936 0.763938
17.551637 10.693658 -34.216336 0.279588 -0.669314 0.688367
18.319959 10.711105 -34.367707 -0.058096 -0.460612 0.885699
19.211928 10.735002 -34.282384 -0.128743 -0.153425 0.979738
20.014895 10.711459 -34.265491 0.130865 0.095193 0.986819
20.889219 10.758252 -34.631192 0.602105 0.316811 0.732872
